ncols         516
nrows         41
xllcorner   288845
yllcorner   7357325
cellsize   1000.00000
-4 -4 -4 -5 -5 -5 -5 -5 -5 -5 -6 -6 -7 -7 -7 -7 -7 -7 -7 -7 -7 -7 -6 -6 -6 -6 -6 -6 -7 -9 -11 -11 -10 -10 -10 -10 -10 -10 -9 -9 -7 -7 -6 -5 -4 -3 -3 -4 -3 -3 -3 0 0 0 1 2 3 0 0 0 1 0 1 0 -1 -1 -1 -2 0 1 1 2 0 -2 -3 -3 -4 -6 -6 -7 -9 -10 -10 -12 -13 -13 -15 -15 -14 -14 -13 -14 -14 -13 -12 -12 -9 -7 -5 -4 -4 -5 -7 -7 -7 -7 -8 -8 -10 -11 -12 -15 -15 -16 -17 -16 -16 -19 -20 -21 -23 -25 -28 -28 -29 -30 -31 -30 -31 -30 -29 -28 -29 -30 -30 -32 -32 -31 -31 -30 -31 -33 -32 -32 -31 -31 -31 -31 -31 -30 -29 -27 -25 -24 -20 -18 -15 -14 -12 -26 -32 -53 -55 -44 -34 -29 -22 -18 -11 -7 -3 1 6 11 17 20 24 30 33 41 42 49 54 58 65 71 80 87 92 99 104 109 120 125 132 137 150 159 174 189 203 213 232 244 252 264 272 278 293 300 307 310 322 324 330 339 346 349 349 360 370 376 384 386 396 400 409 420 432 439 452 457 468 475 480 490 499 507 514 521 531 534 543 547 552 561 569 578 588 602 610 619 625 628 639 645 653 658 668 677 685 684 689 695 696 701 705 705 705 708 709 711 714 720 719 720 721 715 717 726 731 728 738 738 740 738 742 739 743 744 749 751 752 754 761 769 778 792 798 804 809 814 821 830 840 845 850 852 852 859 864 874 877 883 891 896 902 916 929 942 954 968 991 1000 1015 1030 1044 1058 1078 1084 1111 1135 1159 1192 1228 1257 1278 1299 1301 1309 1305 1312 1328 1330 1342 1354 1373 1389 1410 1417 1429 1437 1441 1448 1452 1448 1444 1439 1443 1451 1462 1474 1479 1482 1480 1477 1481 1485 1486 1482 1482 1485 1484 1487 1485 1485 1487 1487 1481 1481 1479 1476 1471 1466 1461 1460 1457 1455 1456 1458 1456 1454 1451 1450 1453 1450 1447 1446 1441 1440 1433 1430 1427 1424 1421 1418 1416 1409 1404 1401 1395 1390 1383 1379 1373 1370 1367 1362 1360 1355 1352 1352 1348 1345 1341 1339 1339 1339 1337 1338 1339 1338 1338 1339 1338 1336 1336 1337 1333 1331 1327 1324 1323 1320 1320 1318 1317 1316 1315 1314 1313 1314 1316 1317 1316 1317 1319 1320 1322 1323 1323 1325 1331 1336 1339 1343 1347 1350 1351 1353 1358 1360 1363 1368 1371 1374 1379 1382 1387 1393 1397 1400 1402 1403 1404 1406 1407 1409 1412 1415 1418 1424 1430 1435 1439 1444 1446 1445 1443 1445 1450 1451 1452 1453 1453 1453 1454 1454 1454 1453 1453 1452 1452 1451 1450 1447
-2 -2 -2 -3 -3 -3 -3 -3 -3 -3 -4 -4 -5 -5 -5 -5 -5 -6 -6 -5 -5 -6 -5 -5 -5 -5 -5 -5 -6 -8 -10 -11 -10 -9 -9 -9 -10 -9 -9 -9 -7 -7 -5 -5 -4 -3 -3 -4 -2 -3 -3 0 1 0 1 3 3 1 1 1 2 1 2 1 0 0 0 0 0 3 3 4 1 0 -1 -1 -2 -4 -4 -4 -6 -7 -8 -9 -10 -10 -13 -12 -12 -12 -10 -11 -12 -11 -10 -10 -7 -5 -3 -2 -2 -3 -4 -5 -5 -5 -6 -6 -8 -9 -10 -13 -13 -14 -15 -15 -15 -17 -19 -19 -22 -24 -26 -27 -28 -29 -30 -29 -30 -29 -29 -28 -29 -30 -30 -32 -32 -31 -31 -31 -32 -34 -33 -33 -32 -33 -32 -32 -32 -32 -31 -29 -27 -26 -23 -20 -18 -17 -15 -29 -35 -56 -58 -47 -38 -32 -25 -21 -15 -10 -6 -1 3 8 14 17 21 28 31 38 39 46 51 56 63 69 78 84 89 96 101 106 117 123 130 135 147 156 171 186 201 210 230 242 249 262 270 276 291 298 305 309 320 322 328 337 344 347 348 358 368 374 383 385 394 398 408 418 431 437 450 456 466 474 479 488 497 506 512 520 529 532 542 545 550 559 567 577 587 600 608 617 623 626 637 644 652 656 667 676 683 683 688 694 695 701 705 706 706 709 710 713 715 722 722 723 724 719 721 731 736 734 745 745 748 747 750 748 753 755 760 762 764 766 774 783 792 807 812 819 824 830 838 847 858 863 868 870 871 878 884 895 898 904 913 918 925 939 953 966 978 993 1017 1026 1041 1057 1071 1086 1106 1112 1140 1163 1188 1221 1256 1284 1305 1325 1328 1335 1330 1337 1353 1355 1367 1379 1397 1413 1434 1440 1451 1459 1463 1469 1473 1469 1464 1459 1463 1470 1480 1492 1496 1498 1495 1492 1496 1499 1499 1494 1493 1496 1495 1497 1495 1494 1495 1495 1488 1488 1485 1482 1477 1471 1465 1465 1461 1458 1459 1460 1458 1456 1453 1451 1454 1450 1447 1446 1441 1439 1433 1429 1426 1423 1420 1417 1415 1408 1402 1399 1392 1387 1381 1376 1371 1367 1364 1359 1357 1352 1349 1349 1346 1343 1339 1337 1337 1337 1335 1336 1338 1337 1337 1338 1338 1336 1336 1337 1333 1332 1328 1325 1324 1321 1322 1320 1319 1318 1317 1316 1315 1316 1318 1319 1319 1320 1322 1323 1325 1326 1327 1329 1334 1340 1343 1347 1351 1354 1355 1357 1363 1364 1367 1373 1375 1379 1384 1387 1392 1397 1402 1405 1407 1408 1408 1410 1412 1414 1417 1420 1423 1429 1434 1439 1444 1448 1450 1449 1447 1450 1454 1456 1456 1457 1457 1457 1458 1457 1457 1456 1456 1456 1455 1454 1453 1450
0 0 0 -1 -1 -1 -1 -1 -1 -2 -3 -3 -3 -4 -4 -4 -4 -5 -5 -5 -5 -5 -4 -4 -5 -4 -5 -5 -6 -8 -10 -10 -10 -9 -9 -9 -10 -9 -9 -9 -7 -7 -5 -5 -4 -3 -3 -4 -2 -2 -2 0 2 1 2 3 4 2 2 2 3 3 4 2 2 2 1 1 3 5 6 6 3 2 0 0 0 -2 -1 -2 -4 -4 -5 -7 -7 -8 -10 -10 -9 -9 -8 -9 -10 -9 -8 -8 -5 -3 -1 0 0 -1 -3 -3 -3 -3 -4 -4 -6 -7 -9 -11 -12 -13 -14 -14 -14 -16 -18 -19 -21 -24 -26 -26 -27 -28 -30 -29 -30 -30 -29 -28 -29 -30 -30 -32 -33 -31 -31 -31 -33 -34 -34 -33 -33 -33 -33 -33 -33 -32 -31 -30 -28 -26 -23 -21 -18 -17 -16 -29 -35 -56 -58 -47 -38 -33 -26 -22 -15 -10 -5 -1 4 9 15 18 22 29 32 40 41 48 54 58 65 71 80 86 91 98 104 108 119 125 132 136 149 158 173 188 202 212 231 243 250 264 271 277 293 300 307 310 322 323 329 338 345 347 347 358 368 373 382 384 393 397 406 417 429 436 448 454 464 471 476 485 494 502 508 516 525 528 537 541 545 555 563 571 581 595 603 612 618 621 632 638 646 650 661 670 678 678 683 689 690 696 700 701 702 705 707 710 713 719 720 722 724 719 721 732 737 736 747 748 752 751 756 754 759 762 768 771 772 776 784 793 803 818 824 831 836 843 852 862 873 879 884 887 888 896 902 914 917 924 934 939 946 960 975 989 1002 1017 1041 1052 1067 1083 1097 1112 1133 1139 1167 1191 1215 1248 1282 1310 1330 1350 1352 1360 1354 1361 1377 1378 1390 1401 1419 1435 1455 1461 1471 1479 1483 1488 1492 1487 1482 1476 1479 1485 1495 1506 1510 1512 1508 1504 1507 1509 1508 1503 1502 1504 1502 1503 1501 1499 1500 1500 1492 1491 1489 1485 1479 1473 1467 1466 1462 1458 1459 1460 1458 1455 1452 1450 1452 1449 1445 1443 1438 1437 1430 1427 1424 1421 1417 1414 1412 1405 1399 1396 1390 1384 1378 1373 1368 1364 1361 1356 1354 1350 1347 1347 1344 1341 1337 1336 1336 1336 1335 1336 1337 1337 1337 1338 1338 1337 1338 1338 1335 1334 1330 1327 1326 1324 1324 1323 1322 1322 1321 1319 1318 1320 1322 1323 1323 1324 1327 1328 1330 1331 1331 1333 1339 1344 1348 1352 1355 1358 1360 1362 1367 1369 1372 1377 1380 1383 1388 1391 1396 1402 1406 1409 1411 1412 1412 1414 1415 1417 1420 1423 1426 1432 1438 1443 1447 1451 1453 1452 1450 1452 1456 1458 1459 1460 1459 1459 1460 1459 1459 1458 1458 1458 1457 1456 1454 1452
0 0 0 -1 -1 -1 -1 -1 -1 -1 -2 -2 -3 -3 -3 -4 -3 -4 -4 -4 -4 -4 -4 -3 -4 -4 -4 -4 -5 -7 -9 -10 -9 -8 -8 -9 -10 -9 -9 -8 -7 -7 -5 -4 -4 -3 -3 -3 -2 -2 -2 0 2 1 2 3 4 2 2 2 3 3 4 2 2 2 1 1 2 5 5 5 3 1 0 0 0 -2 -2 -3 -4 -5 -6 -8 -8 -9 -11 -11 -10 -10 -9 -10 -11 -10 -9 -9 -7 -5 -3 -1 -2 -2 -4 -4 -4 -4 -5 -5 -7 -8 -9 -12 -12 -13 -14 -14 -14 -16 -18 -18 -21 -23 -25 -26 -27 -28 -29 -28 -29 -29 -28 -27 -28 -29 -29 -31 -32 -30 -30 -30 -31 -33 -32 -32 -32 -32 -32 -31 -31 -31 -30 -29 -27 -25 -23 -20 -18 -17 -16 -29 -35 -56 -59 -48 -39 -33 -27 -23 -16 -11 -7 -2 3 8 14 17 21 28 31 39 40 46 52 56 63 69 77 84 89 95 101 105 116 121 128 133 145 154 169 184 198 207 227 239 246 259 267 273 289 296 303 306 318 319 326 334 341 343 344 354 364 370 379 380 390 393 403 414 426 433 446 451 461 469 474 483 492 500 506 513 523 525 535 539 543 552 560 569 579 593 600 609 615 618 629 635 643 648 658 667 674 675 680 685 687 693 697 698 698 701 703 706 709 715 716 718 720 715 717 728 733 732 743 744 748 747 752 750 755 758 764 767 768 771 780 789 798 813 819 825 830 838 846 857 868 873 878 881 882 890 896 908 911 918 928 933 940 955 969 983 997 1013 1037 1048 1063 1080 1095 1110 1131 1137 1164 1189 1213 1246 1280 1307 1326 1346 1350 1357 1351 1358 1375 1375 1388 1399 1417 1433 1453 1459 1470 1477 1482 1487 1491 1487 1482 1476 1479 1485 1496 1507 1511 1512 1509 1505 1508 1510 1509 1504 1503 1505 1504 1505 1503 1502 1503 1502 1495 1494 1492 1488 1483 1476 1471 1470 1465 1462 1463 1464 1462 1459 1456 1454 1456 1453 1450 1448 1443 1441 1435 1432 1428 1426 1422 1419 1417 1410 1404 1401 1394 1388 1382 1377 1371 1368 1364 1360 1357 1353 1350 1350 1347 1344 1339 1338 1338 1338 1337 1338 1339 1338 1338 1339 1340 1339 1339 1340 1336 1335 1331 1328 1327 1324 1325 1323 1323 1322 1321 1319 1318 1320 1321 1323 1323 1324 1326 1327 1329 1330 1331 1333 1339 1344 1347 1351 1355 1358 1360 1362 1367 1369 1372 1377 1380 1384 1389 1392 1397 1402 1407 1410 1412 1413 1414 1416 1417 1419 1422 1425 1429 1434 1440 1445 1449 1454 1456 1455 1453 1455 1460 1461 1462 1463 1462 1462 1463 1463 1463 1462 1462 1461 1461 1459 1458 1455
0 1 1 0 0 0 0 0 0 0 -1 -1 -2 -2 -2 -3 -2 -3 -3 -3 -3 -3 -3 -3 -3 -3 -4 -4 -5 -7 -8 -9 -9 -8 -8 -9 -9 -9 -8 -8 -7 -7 -5 -4 -3 -2 -2 -3 -1 -2 -2 1 2 2 3 4 5 3 3 3 4 4 5 4 3 3 3 3 4 7 7 7 5 3 2 1 0 -1 0 -1 -2 -3 -4 -5 -6 -7 -9 -9 -9 -8 -8 -9 -10 -9 -7 -8 -5 -4 -1 0 -1 -1 -3 -3 -3 -3 -4 -4 -6 -7 -8 -11 -11 -12 -14 -14 -14 -16 -17 -18 -20 -22 -25 -25 -26 -27 -28 -28 -29 -28 -27 -27 -27 -28 -28 -31 -31 -30 -30 -30 -31 -32 -32 -31 -31 -31 -31 -31 -31 -31 -30 -28 -26 -25 -22 -20 -18 -17 -16 -29 -35 -56 -58 -48 -38 -33 -27 -23 -16 -11 -6 -1 4 9 15 18 23 29 32 40 42 48 54 58 65 70 79 85 90 97 102 107 117 123 129 134 146 155 170 184 199 208 228 239 246 260 267 273 289 296 304 307 318 319 325 334 341 343 343 353 363 369 378 379 388 391 401 412 424 430 443 448 459 466 470 479 488 497 502 509 519 521 531 534 538 548 555 564 574 588 595 604 610 613 623 630 637 642 652 662 669 669 674 680 681 687 692 693 693 697 699 702 705 712 713 715 718 713 716 727 733 732 743 744 749 749 754 753 758 762 769 771 773 777 786 795 804 821 826 833 838 846 855 866 878 883 889 892 893 902 908 920 924 931 942 947 954 969 984 999 1013 1030 1055 1066 1081 1098 1113 1129 1151 1156 1184 1209 1233 1265 1300 1325 1344 1363 1367 1374 1368 1375 1392 1392 1404 1416 1433 1448 1468 1474 1485 1492 1496 1501 1505 1501 1495 1489 1492 1497 1507 1518 1522 1523 1519 1514 1517 1519 1517 1512 1510 1512 1511 1511 1509 1507 1508 1507 1500 1499 1496 1492 1486 1480 1474 1473 1468 1465 1465 1466 1464 1461 1457 1456 1458 1454 1451 1448 1444 1442 1436 1432 1429 1426 1423 1420 1417 1410 1404 1401 1394 1389 1382 1377 1372 1368 1364 1360 1357 1353 1350 1350 1347 1344 1340 1338 1338 1338 1338 1339 1340 1339 1339 1341 1341 1341 1341 1342 1338 1337 1333 1330 1330 1327 1328 1326 1326 1325 1324 1322 1321 1323 1324 1326 1326 1327 1330 1331 1333 1334 1334 1337 1342 1347 1350 1354 1358 1361 1363 1366 1371 1372 1376 1381 1384 1387 1393 1395 1401 1406 1410 1413 1415 1416 1417 1419 1420 1422 1426 1429 1432 1438 1443 1448 1452 1457 1459 1458 1456 1458 1463 1464 1465 1466 1465 1465 1466 1465 1465 1464 1465 1464 1464 1462 1461 1458
2 2 3 1 1 1 1 2 2 1 0 0 0 0 0 -1 -1 -2 -2 -2 -2 -2 -2 -1 -2 -2 -3 -3 -4 -6 -8 -9 -8 -8 -8 -8 -9 -9 -8 -8 -7 -7 -5 -4 -4 -3 -3 -3 -1 -2 -2 0 2 2 3 4 5 3 3 4 5 4 6 4 4 4 3 3 5 7 8 8 5 4 3 2 1 0 0 0 -1 -2 -2 -4 -5 -5 -8 -8 -7 -7 -6 -7 -8 -8 -6 -7 -4 -2 0 0 0 0 -1 -2 -1 -1 -2 -2 -4 -5 -6 -9 -9 -11 -12 -12 -12 -14 -15 -16 -19 -21 -23 -24 -25 -26 -27 -27 -28 -27 -27 -26 -27 -28 -28 -30 -31 -30 -30 -30 -31 -33 -33 -32 -32 -33 -32 -32 -32 -32 -32 -30 -29 -27 -25 -23 -21 -20 -19 -33 -38 -59 -62 -52 -42 -37 -31 -28 -21 -15 -10 -5 0 4 10 14 18 25 28 36 37 44 50 54 61 66 75 81 86 93 98 103 113 119 125 130 142 151 166 181 195 204 224 236 243 256 264 270 286 293 301 305 316 317 324 332 339 341 341 351 362 368 377 378 387 390 400 411 424 430 443 448 458 465 470 479 488 496 501 509 518 520 530 533 537 547 554 563 573 586 594 602 608 611 621 628 635 639 650 659 666 666 671 677 678 684 689 690 690 694 696 699 702 709 711 712 715 711 714 725 731 730 742 743 748 748 754 753 759 763 770 772 775 778 788 797 806 823 829 835 840 849 859 870 882 888 893 897 898 907 914 927 931 939 950 955 962 978 994 1009 1024 1041 1067 1079 1094 1112 1128 1144 1166 1171 1200 1225 1249 1281 1316 1341 1358 1378 1382 1389 1384 1391 1408 1408 1421 1432 1450 1464 1484 1490 1501 1508 1512 1517 1520 1517 1511 1505 1508 1513 1523 1533 1537 1538 1533 1528 1530 1532 1530 1525 1523 1525 1523 1523 1520 1518 1519 1518 1510 1509 1505 1501 1495 1489 1482 1481 1476 1472 1472 1473 1471 1467 1464 1461 1463 1459 1456 1453 1448 1446 1440 1436 1433 1430 1426 1423 1420 1413 1406 1403 1396 1390 1383 1378 1372 1368 1364 1359 1357 1353 1350 1350 1346 1343 1339 1337 1337 1337 1337 1338 1339 1338 1338 1340 1340 1340 1340 1341 1337 1336 1332 1330 1329 1327 1328 1326 1326 1325 1324 1322 1321 1323 1324 1326 1326 1328 1331 1332 1334 1335 1336 1338 1344 1349 1352 1356 1360 1363 1365 1368 1373 1375 1379 1383 1387 1391 1396 1399 1404 1409 1413 1416 1419 1420 1421 1423 1424 1426 1429 1433 1436 1442 1447 1452 1456 1461 1463 1462 1460 1462 1466 1468 1469 1469 1469 1469 1470 1469 1469 1468 1468 1467 1467 1465 1464 1461
3 3 3 2 2 2 2 2 2 1 0 0 0 0 0 -1 0 -2 -2 -2 -2 -2 -2 -1 -2 -2 -3 -3 -4 -6 -8 -9 -9 -8 -8 -9 -10 -9 -9 -9 -8 -8 -6 -5 -4 -3 -3 -4 -2 -3 -3 0 2 1 2 4 5 3 3 4 5 5 6 5 4 4 4 4 6 8 9 9 6 5 3 3 2 0 1 0 0 -1 -1 -3 -4 -4 -7 -7 -6 -6 -5 -6 -8 -7 -6 -6 -4 -2 0 0 0 0 -1 -1 -1 -1 -2 -2 -4 -5 -6 -9 -9 -11 -12 -12 -13 -14 -16 -16 -19 -21 -24 -24 -25 -27 -28 -28 -29 -29 -28 -28 -28 -30 -30 -32 -33 -32 -32 -32 -34 -36 -35 -35 -35 -35 -35 -35 -36 -36 -35 -34 -32 -31 -29 -27 -25 -25 -24 -37 -43 -64 -67 -57 -48 -42 -37 -33 -26 -21 -16 -11 -5 0 5 9 13 20 23 31 33 40 45 49 56 62 70 76 81 88 93 98 108 114 120 125 137 146 161 176 190 198 219 231 238 252 260 266 282 289 297 301 313 313 320 328 335 337 337 347 358 364 373 374 384 387 396 407 420 426 439 444 455 462 467 475 485 493 497 505 514 516 526 529 534 543 550 559 568 582 589 598 604 606 617 623 630 634 645 654 661 661 666 672 673 679 684 685 685 689 691 694 697 704 706 708 711 708 710 722 728 727 739 740 745 746 752 752 757 762 769 771 774 777 787 797 806 823 828 834 839 849 859 870 883 888 894 898 900 909 916 929 933 941 953 958 966 981 997 1013 1029 1047 1073 1085 1100 1118 1135 1152 1174 1179 1207 1233 1257 1289 1323 1347 1364 1384 1389 1395 1390 1397 1414 1414 1427 1438 1456 1470 1490 1496 1506 1513 1518 1522 1526 1522 1516 1510 1513 1518 1527 1538 1542 1542 1537 1532 1534 1535 1533 1528 1525 1527 1525 1525 1522 1520 1521 1520 1512 1511 1507 1503 1497 1490 1484 1482 1477 1473 1473 1474 1471 1468 1464 1462 1464 1460 1456 1453 1448 1446 1440 1437 1433 1430 1427 1423 1421 1413 1407 1403 1396 1390 1383 1377 1372 1368 1363 1359 1357 1353 1350 1350 1346 1343 1339 1337 1337 1337 1337 1338 1339 1338 1338 1339 1340 1340 1341 1341 1337 1337 1333 1330 1330 1327 1328 1326 1327 1326 1324 1323 1322 1323 1325 1327 1327 1329 1332 1333 1335 1336 1337 1339 1345 1349 1353 1357 1361 1364 1367 1369 1374 1376 1380 1385 1388 1392 1397 1400 1405 1410 1415 1418 1420 1421 1422 1424 1426 1428 1431 1434 1438 1443 1449 1454 1458 1463 1465 1464 1461 1464 1468 1470 1471 1471 1471 1471 1472 1471 1471 1470 1470 1469 1468 1467 1465 1463
3 3 3 2 2 2 2 2 2 2 0 0 0 0 0 0 0 -1 -1 -1 -1 -1 -1 -1 -2 -2 -3 -3 -4 -6 -8 -9 -8 -8 -8 -9 -10 -9 -9 -9 -7 -7 -6 -5 -4 -3 -3 -4 -2 -3 -2 0 2 1 3 4 5 4 4 4 5 5 6 5 5 5 4 4 6 8 9 9 6 5 4 3 2 0 1 1 0 -1 -1 -3 -4 -4 -7 -7 -7 -6 -6 -7 -8 -8 -6 -7 -5 -3 -1 0 0 0 -2 -2 -2 -1 -2 -3 -4 -5 -6 -9 -9 -11 -12 -12 -13 -14 -16 -16 -19 -21 -23 -24 -25 -26 -28 -27 -28 -28 -28 -27 -28 -29 -29 -32 -32 -31 -31 -32 -33 -35 -35 -34 -34 -35 -35 -35 -35 -35 -34 -33 -32 -31 -28 -27 -25 -25 -24 -37 -43 -64 -67 -57 -48 -43 -37 -34 -27 -21 -16 -11 -5 0 5 9 13 20 23 31 33 39 45 49 56 61 69 75 80 87 92 96 107 112 119 123 135 144 159 174 188 196 217 228 235 249 258 264 280 287 296 299 311 312 318 327 334 335 335 346 356 362 372 372 382 385 395 406 419 425 438 443 454 461 465 474 483 491 496 504 513 515 525 528 532 542 549 557 567 581 588 596 602 605 615 621 629 633 643 652 659 659 664 670 671 678 682 683 683 687 689 693 696 703 705 707 710 707 710 721 727 726 738 739 745 746 752 751 757 762 769 771 774 777 787 796 806 822 828 833 838 847 858 869 881 887 892 897 898 907 914 927 931 940 951 957 964 979 996 1012 1028 1046 1072 1085 1099 1118 1135 1152 1174 1179 1207 1234 1257 1288 1322 1346 1362 1381 1386 1393 1387 1394 1412 1411 1424 1436 1453 1467 1487 1492 1503 1510 1514 1519 1522 1519 1513 1507 1510 1514 1524 1535 1539 1539 1534 1529 1530 1532 1530 1524 1522 1524 1522 1522 1519 1517 1518 1517 1509 1508 1505 1500 1495 1488 1482 1481 1476 1472 1472 1472 1470 1467 1464 1462 1463 1459 1456 1453 1448 1447 1441 1438 1434 1431 1428 1424 1422 1415 1408 1405 1397 1391 1384 1379 1373 1369 1365 1360 1358 1354 1351 1351 1348 1345 1340 1338 1339 1339 1338 1340 1341 1340 1339 1341 1342 1342 1342 1343 1339 1338 1334 1332 1331 1329 1330 1328 1328 1327 1326 1324 1323 1324 1326 1328 1328 1330 1333 1334 1337 1338 1338 1340 1346 1350 1354 1358 1361 1365 1368 1370 1375 1377 1381 1386 1389 1393 1398 1401 1407 1412 1416 1419 1421 1423 1424 1426 1427 1430 1433 1436 1439 1445 1451 1456 1460 1465 1467 1466 1463 1466 1471 1473 1473 1473 1473 1473 1474 1473 1473 1472 1472 1472 1471 1469 1468 1465
2 2 3 2 2 1 2 2 2 1 0 0 0 0 0 0 0 -1 -1 -2 -1 -2 -1 -1 -2 -2 -3 -3 -4 -6 -8 -9 -9 -9 -9 -9 -10 -10 -9 -9 -8 -8 -6 -6 -5 -4 -4 -4 -2 -3 -3 0 2 1 2 3 5 3 3 4 5 5 6 5 5 5 4 4 6 8 9 8 6 4 3 2 2 0 1 0 -1 -1 -2 -4 -4 -5 -7 -7 -7 -7 -6 -8 -9 -9 -7 -8 -6 -4 -2 -1 -1 -1 -3 -3 -3 -2 -3 -4 -5 -6 -7 -9 -10 -12 -13 -13 -14 -15 -16 -17 -19 -22 -24 -24 -26 -27 -28 -28 -29 -29 -29 -28 -29 -30 -30 -33 -33 -32 -32 -33 -34 -36 -36 -35 -36 -36 -36 -36 -36 -36 -36 -35 -34 -33 -30 -29 -27 -27 -27 -40 -45 -66 -70 -60 -51 -46 -41 -37 -30 -24 -19 -14 -9 -4 2 5 10 17 19 28 29 36 42 46 53 58 66 72 77 83 89 93 103 109 115 119 132 140 155 170 184 192 213 224 231 246 254 260 276 284 293 296 308 309 315 324 331 333 332 343 354 360 369 370 380 383 392 404 417 423 436 441 451 459 463 472 481 489 493 501 510 512 523 525 529 539 546 554 564 577 584 592 598 600 611 617 624 628 638 647 653 653 658 664 665 671 676 676 676 680 682 685 688 695 698 699 703 699 702 713 719 718 730 731 737 738 745 744 749 755 761 763 765 769 779 788 797 813 818 823 828 837 848 860 872 877 882 887 888 898 904 917 921 930 942 948 955 970 987 1003 1020 1038 1065 1078 1093 1112 1129 1147 1169 1174 1202 1229 1252 1283 1317 1339 1354 1374 1379 1386 1380 1388 1406 1405 1418 1430 1447 1462 1482 1487 1498 1505 1510 1514 1518 1515 1510 1503 1506 1511 1521 1532 1536 1536 1531 1525 1527 1529 1527 1521 1519 1521 1519 1520 1517 1515 1516 1515 1508 1506 1503 1499 1494 1487 1481 1480 1475 1471 1471 1472 1470 1467 1463 1461 1463 1459 1456 1452 1448 1447 1441 1438 1435 1432 1428 1425 1422 1415 1409 1405 1398 1392 1384 1379 1373 1369 1365 1360 1358 1354 1351 1351 1347 1344 1340 1338 1338 1338 1338 1339 1340 1339 1338 1340 1341 1341 1341 1342 1338 1337 1333 1331 1330 1328 1329 1327 1327 1326 1325 1323 1322 1323 1325 1327 1327 1329 1332 1333 1336 1337 1337 1339 1345 1349 1353 1357 1360 1364 1367 1370 1375 1377 1381 1385 1389 1393 1398 1401 1407 1412 1416 1419 1422 1423 1424 1426 1428 1430 1434 1437 1440 1446 1452 1457 1461 1466 1468 1467 1465 1468 1472 1474 1475 1475 1475 1475 1476 1475 1475 1474 1474 1473 1473 1471 1470 1467
2 2 3 1 1 1 2 2 2 1 0 0 0 0 0 0 0 -1 -1 -2 -2 -2 -1 -1 -2 -2 -3 -4 -4 -6 -8 -10 -9 -9 -9 -10 -11 -10 -10 -10 -9 -9 -7 -6 -6 -5 -4 -5 -3 -4 -4 0 1 0 2 3 4 3 3 4 5 5 6 5 5 5 4 4 6 8 9 9 6 4 3 3 2 0 1 0 0 -1 -1 -3 -4 -5 -7 -7 -7 -7 -7 -8 -9 -9 -8 -9 -6 -5 -2 -1 -2 -2 -3 -4 -3 -3 -4 -4 -6 -6 -7 -10 -10 -12 -13 -14 -14 -16 -17 -17 -20 -22 -24 -24 -26 -27 -29 -29 -30 -30 -29 -29 -29 -31 -31 -33 -34 -33 -33 -34 -35 -37 -37 -36 -37 -37 -37 -37 -38 -38 -37 -37 -36 -35 -33 -31 -30 -30 -30 -43 -48 -69 -73 -63 -54 -50 -45 -42 -35 -29 -24 -19 -13 -8 -2 1 5 12 14 23 24 31 36 40 47 52 60 66 70 77 82 86 96 101 107 111 124 132 147 161 175 183 204 215 222 237 245 251 268 275 284 287 299 300 307 316 322 324 323 334 345 351 361 361 371 374 384 395 408 414 428 433 443 451 455 464 473 481 486 493 503 505 515 518 522 532 539 547 557 570 577 586 592 594 605 611 618 622 632 641 647 648 653 658 660 667 671 672 672 676 679 682 685 692 695 697 701 698 700 712 718 717 729 730 737 738 745 744 750 756 762 765 767 770 781 789 798 815 820 825 829 839 850 861 874 879 884 888 890 900 906 919 924 933 945 950 957 973 990 1006 1023 1042 1069 1082 1097 1116 1134 1151 1173 1178 1206 1233 1256 1286 1320 1341 1355 1375 1380 1387 1381 1389 1407 1405 1419 1431 1447 1462 1481 1487 1497 1504 1509 1513 1517 1514 1508 1502 1505 1509 1519 1530 1534 1534 1528 1523 1525 1526 1524 1518 1516 1518 1516 1517 1514 1512 1513 1512 1505 1504 1501 1497 1492 1485 1479 1478 1473 1469 1469 1470 1469 1465 1462 1460 1462 1458 1455 1451 1447 1446 1441 1438 1435 1432 1429 1425 1423 1416 1409 1406 1398 1392 1385 1380 1374 1370 1365 1361 1359 1355 1352 1352 1348 1345 1341 1339 1339 1339 1339 1340 1341 1340 1339 1341 1342 1343 1343 1343 1340 1339 1335 1332 1332 1330 1331 1329 1329 1328 1326 1324 1323 1324 1326 1328 1329 1330 1333 1334 1337 1338 1338 1340 1345 1350 1353 1357 1361 1365 1368 1370 1375 1377 1381 1386 1389 1394 1399 1402 1407 1412 1417 1420 1422 1424 1425 1427 1429 1431 1435 1438 1441 1447 1453 1458 1462 1467 1469 1468 1466 1469 1473 1475 1476 1476 1476 1476 1477 1476 1476 1475 1475 1475 1474 1472 1471 1468
2 2 2 1 1 1 1 2 2 1 0 0 0 0 0 0 0 -1 -1 -2 -1 -2 -1 -1 -2 -2 -3 -4 -4 -6 -8 -10 -9 -9 -9 -10 -11 -10 -10 -10 -9 -9 -7 -7 -6 -5 -5 -5 -3 -4 -4 0 1 0 1 3 4 3 3 4 5 5 6 6 5 5 4 4 6 9 9 9 6 4 3 2 1 0 1 0 -1 -1 -2 -4 -4 -5 -7 -8 -8 -7 -7 -9 -10 -10 -8 -9 -7 -5 -3 -2 -3 -3 -4 -5 -4 -4 -5 -5 -6 -7 -8 -10 -11 -13 -14 -14 -15 -16 -17 -17 -20 -22 -24 -24 -26 -27 -29 -29 -30 -30 -29 -29 -29 -30 -30 -33 -34 -33 -33 -33 -35 -36 -36 -36 -36 -37 -37 -37 -37 -37 -37 -36 -35 -34 -32 -31 -30 -30 -30 -43 -48 -69 -73 -63 -55 -50 -46 -43 -35 -29 -24 -19 -13 -9 -2 0 5 12 14 23 24 31 36 40 47 51 59 65 69 75 81 84 95 100 105 109 122 130 144 159 173 180 201 212 219 233 242 248 264 271 281 284 296 296 303 312 318 320 319 330 341 347 356 357 366 369 379 390 403 409 422 427 438 445 449 458 467 475 479 487 496 498 508 511 515 524 531 539 549 562 569 577 583 585 595 601 608 612 622 631 637 637 642 648 649 656 661 661 662 665 668 671 674 681 684 686 691 688 690 702 708 708 720 721 727 729 736 736 742 748 754 756 759 762 772 781 790 807 812 816 820 831 842 854 866 871 876 881 883 893 900 913 917 927 939 945 952 967 985 1002 1019 1039 1067 1080 1094 1115 1133 1151 1173 1178 1206 1233 1255 1286 1319 1339 1353 1373 1379 1385 1380 1388 1406 1405 1418 1430 1447 1461 1481 1486 1497 1504 1509 1513 1517 1514 1509 1503 1506 1510 1519 1530 1535 1535 1529 1524 1525 1527 1524 1519 1517 1519 1517 1517 1515 1513 1514 1513 1506 1505 1502 1498 1493 1487 1481 1480 1475 1471 1471 1472 1471 1467 1464 1462 1464 1460 1457 1453 1450 1448 1443 1440 1437 1435 1431 1428 1425 1418 1412 1408 1400 1394 1387 1382 1376 1372 1367 1363 1361 1357 1354 1354 1350 1347 1342 1340 1340 1340 1341 1341 1342 1341 1340 1342 1343 1344 1344 1344 1341 1340 1336 1333 1333 1331 1331 1329 1330 1328 1327 1325 1324 1325 1327 1328 1329 1331 1334 1335 1338 1338 1339 1341 1346 1351 1354 1358 1362 1365 1368 1371 1376 1378 1382 1387 1390 1395 1400 1403 1408 1413 1418 1421 1423 1425 1426 1428 1430 1433 1436 1439 1443 1449 1455 1460 1464 1469 1471 1470 1468 1471 1475 1477 1478 1478 1478 1478 1479 1478 1478 1477 1477 1477 1476 1474 1473 1470
1 2 2 1 1 1 1 2 2 1 0 0 0 0 0 0 0 -1 -1 -2 -1 -1 -1 -1 -2 -2 -3 -4 -4 -6 -8 -10 -10 -9 -9 -10 -11 -10 -10 -10 -9 -9 -8 -7 -6 -5 -5 -5 -3 -4 -4 -1 1 0 1 3 4 3 3 4 5 5 6 6 5 5 5 5 6 9 9 9 6 4 3 2 1 0 0 0 -1 -1 -2 -4 -5 -5 -8 -8 -8 -8 -8 -9 -11 -10 -9 -10 -8 -6 -4 -3 -3 -4 -5 -5 -5 -4 -5 -5 -7 -7 -8 -11 -11 -13 -14 -15 -15 -16 -17 -18 -20 -22 -24 -24 -26 -27 -29 -29 -30 -30 -29 -29 -29 -30 -31 -33 -34 -33 -33 -33 -35 -36 -36 -36 -37 -37 -37 -37 -38 -38 -38 -37 -36 -35 -34 -33 -31 -32 -31 -44 -49 -70 -75 -65 -57 -52 -49 -45 -38 -32 -27 -22 -16 -12 -5 -2 2 8 11 20 21 27 33 37 43 47 55 60 65 71 76 80 90 95 100 104 116 124 139 153 167 174 195 205 212 227 236 242 258 265 275 278 290 290 297 306 312 314 313 324 335 341 351 351 361 363 373 385 398 404 417 422 433 440 444 453 462 470 474 481 491 493 504 506 510 520 526 534 544 557 564 572 578 580 591 597 603 607 617 627 632 633 638 644 645 653 657 658 658 662 665 668 671 679 682 684 689 686 689 701 707 707 719 720 727 729 736 736 742 748 754 757 759 762 773 782 790 807 812 816 820 831 842 854 866 871 876 881 883 893 900 913 917 927 940 945 952 968 985 1002 1020 1040 1068 1082 1096 1117 1135 1153 1175 1180 1208 1235 1257 1287 1319 1339 1351 1371 1377 1384 1378 1386 1404 1403 1416 1428 1445 1459 1478 1483 1494 1501 1506 1510 1514 1511 1506 1500 1503 1506 1516 1527 1531 1531 1525 1520 1521 1523 1520 1515 1512 1515 1513 1513 1510 1509 1510 1509 1502 1501 1498 1494 1490 1483 1478 1477 1472 1468 1468 1469 1468 1465 1461 1460 1461 1458 1454 1451 1447 1446 1441 1439 1436 1433 1430 1427 1424 1417 1411 1407 1399 1393 1386 1381 1376 1371 1366 1362 1360 1356 1354 1353 1349 1346 1342 1340 1340 1340 1340 1341 1342 1340 1339 1341 1343 1343 1344 1344 1341 1340 1336 1333 1333 1331 1332 1330 1330 1329 1327 1325 1324 1325 1327 1328 1329 1331 1334 1336 1338 1339 1339 1342 1346 1351 1354 1358 1362 1365 1369 1372 1377 1379 1383 1387 1391 1395 1401 1404 1409 1414 1418 1421 1424 1426 1427 1429 1431 1434 1437 1441 1444 1450 1456 1461 1465 1470 1472 1471 1469 1472 1476 1479 1479 1480 1479 1479 1480 1479 1479 1478 1479 1478 1478 1475 1474 1472
0 0 1 0 0 0 0 0 1 0 0 0 0 -1 -1 -1 -1 -2 -2 -3 -2 -2 -2 -2 -3 -3 -4 -4 -5 -7 -9 -10 -10 -10 -10 -10 -11 -11 -11 -11 -10 -10 -8 -7 -7 -6 -5 -5 -3 -5 -4 -1 1 0 1 3 4 3 3 4 5 6 7 6 6 6 5 5 7 9 10 9 6 4 3 2 1 0 0 0 -1 -1 -2 -4 -5 -6 -8 -9 -9 -9 -9 -10 -12 -12 -11 -12 -10 -8 -6 -5 -6 -6 -7 -8 -7 -6 -7 -8 -9 -9 -10 -12 -13 -15 -16 -17 -17 -18 -19 -19 -22 -24 -26 -26 -27 -29 -30 -30 -31 -31 -31 -30 -31 -31 -31 -34 -35 -34 -34 -34 -35 -37 -37 -37 -37 -37 -37 -38 -38 -38 -38 -38 -36 -36 -34 -33 -32 -32 -32 -45 -50 -71 -76 -66 -58 -53 -50 -47 -40 -34 -28 -23 -18 -13 -7 -3 0 6 9 18 19 25 30 34 40 44 51 57 61 67 72 75 85 90 95 99 110 118 132 146 160 166 188 198 205 219 228 234 250 257 267 270 282 282 289 298 304 305 304 315 326 332 342 342 352 354 365 376 389 395 409 414 424 431 436 444 454 462 466 474 483 485 496 499 503 513 519 528 537 551 558 566 572 574 585 591 598 602 612 622 627 628 633 639 641 649 653 654 655 659 662 666 669 676 680 682 687 685 688 700 706 706 718 719 726 729 736 736 742 748 754 757 759 762 773 781 790 806 810 814 818 829 840 851 863 868 872 877 879 888 895 908 912 922 934 940 946 961 979 996 1014 1034 1062 1076 1089 1110 1128 1146 1168 1171 1199 1226 1247 1276 1308 1326 1338 1357 1364 1370 1364 1372 1390 1388 1402 1414 1430 1443 1462 1468 1478 1485 1490 1494 1497 1495 1490 1484 1487 1490 1500 1511 1515 1515 1510 1505 1506 1507 1505 1499 1498 1500 1499 1499 1497 1496 1497 1497 1490 1490 1487 1484 1479 1474 1469 1468 1463 1460 1461 1462 1461 1458 1456 1455 1456 1453 1451 1447 1444 1443 1439 1437 1435 1433 1430 1427 1425 1418 1412 1408 1401 1396 1389 1384 1379 1374 1370 1366 1364 1360 1358 1357 1354 1351 1346 1344 1344 1344 1345 1346 1347 1345 1344 1346 1347 1348 1349 1349 1345 1344 1340 1338 1337 1335 1336 1334 1334 1332 1331 1329 1327 1328 1329 1331 1332 1333 1336 1338 1340 1341 1341 1343 1347 1351 1355 1358 1362 1365 1369 1372 1376 1378 1382 1387 1390 1395 1400 1403 1408 1413 1417 1420 1423 1424 1426 1428 1430 1433 1436 1439 1443 1449 1455 1460 1464 1469 1471 1470 1468 1471 1476 1478 1478 1479 1479 1479 1480 1479 1479 1478 1479 1478 1478 1476 1475 1472
-1 0 0 -1 -1 -1 0 0 0 0 -1 -1 -1 -2 -2 -2 -2 -3 -3 -4 -3 -3 -3 -3 -3 -3 -4 -5 -6 -8 -10 -11 -11 -11 -10 -11 -12 -12 -11 -12 -10 -11 -9 -8 -7 -6 -6 -6 -4 -5 -5 -1 1 0 1 2 4 3 3 4 5 5 7 6 6 6 5 5 6 9 9 8 6 4 3 1 1 0 0 0 -2 -2 -3 -5 -6 -7 -9 -10 -10 -10 -10 -12 -13 -13 -12 -13 -12 -10 -8 -7 -7 -8 -9 -10 -9 -8 -9 -9 -11 -11 -12 -14 -15 -17 -18 -18 -19 -20 -21 -21 -23 -25 -27 -27 -28 -30 -32 -32 -33 -32 -32 -32 -32 -33 -33 -35 -36 -35 -35 -35 -37 -38 -38 -38 -38 -39 -39 -39 -39 -40 -39 -39 -38 -37 -36 -35 -34 -34 -34 -47 -52 -72 -78 -69 -60 -56 -53 -50 -43 -37 -31 -26 -21 -16 -10 -6 -2 3 6 14 15 22 27 31 37 41 47 53 57 63 68 71 80 85 90 94 105 113 127 141 154 160 182 192 199 213 222 228 244 251 262 265 277 276 283 292 299 299 299 309 320 327 337 336 346 349 359 370 384 390 403 408 419 426 430 439 448 457 460 468 478 479 491 493 498 507 514 522 532 545 552 560 566 568 579 585 591 595 605 615 620 622 626 632 634 642 646 647 647 652 655 658 662 669 673 675 680 678 681 693 699 698 711 712 719 721 729 728 734 741 747 749 751 754 764 773 781 798 801 804 808 819 830 841 853 857 861 866 868 877 884 897 901 911 923 929 935 950 968 985 1003 1023 1052 1066 1079 1100 1118 1136 1158 1162 1189 1216 1237 1266 1297 1314 1325 1345 1351 1357 1351 1360 1378 1376 1390 1402 1418 1432 1451 1456 1466 1473 1479 1483 1486 1485 1479 1474 1477 1480 1490 1501 1506 1506 1501 1496 1497 1499 1496 1491 1489 1492 1491 1492 1490 1489 1491 1490 1484 1484 1482 1479 1475 1469 1465 1465 1460 1457 1457 1459 1459 1456 1454 1453 1454 1452 1449 1446 1443 1442 1439 1437 1435 1433 1430 1427 1425 1419 1413 1409 1402 1396 1389 1384 1379 1375 1370 1366 1364 1361 1358 1358 1354 1351 1346 1344 1344 1344 1345 1346 1346 1345 1343 1345 1346 1347 1348 1348 1344 1343 1339 1336 1336 1334 1334 1332 1332 1331 1329 1327 1325 1326 1327 1329 1330 1331 1334 1335 1338 1338 1338 1341 1345 1349 1352 1355 1359 1362 1366 1369 1374 1376 1380 1384 1388 1392 1398 1401 1406 1411 1415 1418 1421 1423 1424 1427 1429 1432 1435 1438 1442 1448 1454 1460 1464 1469 1471 1470 1468 1471 1476 1478 1479 1479 1479 1479 1481 1480 1480 1479 1480 1479 1479 1477 1476 1473
-1 0 0 -1 -1 -1 0 0 0 0 -1 -1 -1 -2 -2 -2 -1 -3 -3 -3 -3 -3 -3 -3 -3 -3 -4 -5 -6 -8 -9 -11 -11 -11 -10 -11 -12 -12 -11 -11 -10 -11 -9 -8 -7 -6 -6 -6 -4 -5 -5 -1 1 0 1 2 4 3 3 4 6 6 8 7 7 7 6 6 7 10 10 9 6 4 3 2 1 0 0 0 -1 -1 -2 -4 -5 -6 -9 -9 -9 -9 -9 -11 -13 -13 -12 -13 -12 -10 -8 -8 -8 -8 -9 -10 -9 -8 -10 -10 -11 -11 -12 -14 -15 -17 -18 -19 -19 -20 -21 -21 -23 -25 -27 -27 -29 -31 -32 -32 -33 -33 -33 -32 -33 -33 -33 -36 -37 -36 -36 -36 -37 -39 -39 -39 -39 -40 -40 -40 -40 -41 -40 -40 -39 -39 -37 -37 -36 -36 -36 -49 -53 -74 -80 -71 -62 -58 -55 -53 -46 -39 -34 -28 -23 -19 -12 -8 -4 1 3 12 13 20 25 29 35 39 45 50 55 60 66 68 78 83 87 91 102 110 124 138 151 157 178 188 195 210 219 224 241 248 259 262 274 273 280 290 296 297 296 306 318 324 334 334 344 346 356 368 381 387 401 406 416 423 428 436 446 454 458 465 475 477 488 490 495 504 511 519 528 542 548 557 563 565 575 581 588 592 602 611 616 618 623 629 630 638 643 644 644 649 652 655 659 666 670 673 678 676 679 691 697 697 709 710 718 720 728 728 734 741 746 748 750 753 764 772 780 797 800 803 806 818 829 840 852 856 861 865 867 877 884 897 901 911 924 929 935 951 969 986 1005 1025 1054 1069 1082 1103 1122 1140 1162 1165 1192 1220 1240 1268 1299 1315 1325 1344 1352 1358 1352 1360 1379 1377 1391 1403 1419 1432 1451 1456 1466 1473 1479 1483 1486 1485 1480 1474 1477 1480 1490 1501 1506 1506 1500 1495 1496 1498 1496 1490 1489 1492 1491 1491 1489 1489 1490 1490 1484 1484 1481 1478 1475 1470 1465 1465 1460 1457 1458 1459 1459 1456 1454 1453 1455 1452 1449 1446 1444 1443 1439 1438 1436 1434 1431 1428 1426 1420 1414 1410 1403 1397 1390 1385 1380 1376 1371 1367 1365 1361 1359 1358 1354 1352 1347 1344 1344 1344 1345 1346 1346 1345 1343 1345 1346 1347 1348 1348 1344 1343 1339 1336 1336 1334 1334 1332 1332 1331 1329 1327 1325 1326 1327 1329 1330 1331 1334 1336 1338 1338 1339 1341 1345 1349 1352 1355 1359 1362 1366 1369 1374 1376 1380 1384 1388 1393 1398 1401 1407 1412 1416 1419 1422 1423 1425 1428 1430 1433 1436 1440 1444 1450 1455 1461 1465 1470 1472 1471 1469 1473 1477 1480 1480 1481 1481 1481 1482 1482 1482 1481 1482 1481 1481 1479 1477 1475
-2 -1 -1 -2 -2 -2 -1 -1 0 -1 -2 -2 -2 -3 -3 -3 -2 -4 -4 -4 -4 -4 -4 -4 -4 -4 -5 -6 -6 -8 -10 -12 -12 -11 -11 -12 -13 -12 -12 -12 -11 -11 -9 -9 -8 -7 -6 -6 -4 -5 -5 -1 1 0 1 3 4 3 4 5 6 7 8 8 8 8 7 6 8 10 11 10 7 5 4 2 2 0 0 0 -1 -1 -2 -4 -5 -6 -9 -9 -10 -10 -10 -12 -14 -14 -13 -15 -13 -12 -10 -9 -9 -10 -11 -12 -11 -10 -11 -11 -12 -13 -14 -16 -16 -18 -20 -20 -21 -22 -23 -23 -25 -27 -29 -29 -30 -32 -33 -34 -35 -34 -34 -34 -34 -35 -35 -37 -38 -37 -37 -37 -38 -40 -40 -39 -40 -40 -40 -41 -41 -41 -41 -41 -40 -39 -38 -37 -36 -37 -37 -49 -54 -74 -80 -71 -63 -59 -56 -54 -47 -40 -35 -29 -24 -20 -13 -9 -5 0 2 11 12 19 24 27 33 37 43 48 52 57 62 65 74 79 83 86 98 105 118 132 144 150 172 181 188 202 211 217 233 240 251 254 266 265 272 281 287 287 286 297 308 314 324 324 333 336 346 357 371 376 390 395 405 412 416 425 434 442 446 453 463 465 476 478 483 493 499 507 517 530 537 545 551 553 564 570 576 580 590 600 605 607 612 618 620 628 633 634 635 640 643 647 651 658 663 666 671 670 673 685 692 692 704 706 714 717 726 725 732 739 745 747 749 752 763 771 780 797 800 803 806 817 829 840 852 856 860 865 867 877 884 897 902 912 925 930 936 952 970 987 1006 1027 1056 1071 1084 1105 1124 1142 1164 1167 1194 1221 1241 1268 1298 1313 1322 1341 1349 1355 1349 1357 1376 1373 1387 1399 1414 1428 1446 1451 1461 1468 1473 1476 1480 1478 1473 1467 1470 1473 1483 1494 1498 1499 1493 1487 1488 1490 1487 1482 1480 1483 1482 1482 1480 1480 1481 1481 1476 1475 1473 1470 1467 1462 1458 1458 1453 1450 1451 1453 1452 1450 1448 1447 1449 1446 1444 1441 1438 1438 1435 1433 1432 1430 1428 1425 1423 1417 1411 1407 1400 1394 1388 1383 1378 1374 1369 1366 1364 1361 1358 1358 1354 1351 1346 1344 1344 1344 1345 1346 1346 1345 1344 1345 1347 1348 1349 1349 1345 1344 1340 1337 1337 1335 1336 1333 1333 1332 1330 1328 1327 1327 1328 1330 1331 1333 1335 1337 1339 1340 1340 1342 1346 1350 1352 1356 1360 1363 1367 1370 1374 1377 1381 1385 1389 1393 1398 1402 1407 1412 1416 1419 1422 1423 1425 1428 1430 1433 1436 1440 1444 1450 1455 1461 1465 1470 1472 1471 1469 1473 1477 1480 1480 1481 1481 1481 1482 1482 1482 1481 1482 1481 1481 1479 1478 1475
-1 -1 0 -1 -1 -1 0 0 0 0 -1 -1 -1 -2 -2 -2 -1 -3 -3 -3 -3 -3 -3 -3 -3 -3 -4 -5 -6 -8 -9 -11 -11 -11 -11 -11 -12 -12 -12 -12 -11 -11 -9 -9 -8 -7 -6 -6 -4 -6 -6 -2 0 0 1 2 4 3 4 5 6 7 8 8 8 8 7 6 8 10 11 10 7 4 3 2 2 0 0 0 -1 -1 -2 -4 -5 -6 -8 -9 -9 -9 -10 -12 -14 -14 -13 -14 -13 -11 -10 -9 -9 -9 -11 -11 -11 -10 -11 -11 -12 -12 -13 -15 -15 -17 -19 -19 -20 -21 -22 -22 -24 -25 -27 -27 -29 -31 -32 -33 -33 -33 -33 -33 -33 -34 -34 -36 -37 -36 -36 -37 -38 -39 -39 -39 -40 -40 -40 -41 -41 -41 -41 -41 -40 -40 -39 -38 -38 -39 -39 -51 -55 -75 -82 -73 -65 -62 -59 -57 -50 -43 -38 -32 -27 -23 -17 -13 -8 -2 0 7 8 15 20 23 29 33 39 43 48 53 58 60 69 74 78 82 93 100 113 127 140 145 167 176 183 198 207 213 229 236 247 251 263 262 269 278 284 285 284 294 306 312 322 322 332 334 345 356 370 376 389 394 405 412 416 425 434 443 446 454 464 465 477 479 484 494 500 508 517 531 537 546 552 554 565 570 577 581 591 600 606 607 613 619 621 629 634 635 635 640 644 648 651 659 663 666 672 671 674 686 693 692 705 706 715 718 726 726 732 739 745 747 749 752 763 771 779 796 799 801 804 816 827 838 850 853 858 863 865 875 882 895 899 909 923 928 934 949 967 985 1005 1026 1055 1070 1083 1104 1123 1141 1163 1166 1193 1220 1239 1266 1296 1310 1318 1337 1345 1351 1345 1353 1372 1370 1384 1396 1411 1425 1443 1448 1458 1464 1470 1473 1476 1475 1470 1465 1468 1471 1480 1492 1496 1496 1490 1485 1486 1488 1485 1480 1478 1481 1480 1481 1479 1479 1480 1480 1475 1475 1473 1470 1467 1462 1458 1458 1453 1450 1451 1453 1453 1451 1449 1448 1450 1448 1445 1442 1440 1439 1436 1435 1433 1432 1429 1427 1425 1419 1413 1409 1402 1396 1390 1385 1380 1376 1371 1367 1366 1362 1360 1359 1355 1352 1348 1345 1345 1345 1347 1347 1347 1346 1344 1345 1347 1349 1349 1349 1346 1344 1341 1338 1338 1336 1336 1334 1334 1333 1331 1328 1327 1327 1329 1330 1331 1333 1336 1337 1340 1340 1340 1342 1346 1350 1353 1356 1360 1363 1367 1370 1375 1377 1382 1386 1389 1394 1399 1403 1408 1412 1416 1420 1423 1424 1426 1429 1432 1434 1438 1441 1445 1451 1457 1462 1467 1471 1474 1473 1471 1474 1479 1482 1482 1483 1482 1483 1484 1483 1483 1482 1483 1483 1482 1480 1479 1477
-1 0 0 -1 -1 -1 0 0 0 0 -1 -1 -1 -2 -2 -2 -1 -3 -3 -4 -3 -3 -3 -3 -4 -4 -5 -6 -6 -8 -10 -12 -12 -12 -12 -12 -13 -13 -13 -13 -12 -13 -11 -10 -9 -8 -7 -7 -5 -7 -7 -3 0 -1 0 1 3 2 3 4 6 6 8 8 8 7 6 6 8 10 11 9 7 4 3 2 2 0 1 0 0 -1 -1 -4 -5 -6 -8 -8 -9 -9 -9 -11 -14 -14 -13 -14 -13 -11 -9 -9 -9 -9 -11 -11 -10 -10 -11 -11 -11 -11 -13 -15 -15 -17 -19 -19 -20 -20 -22 -22 -24 -25 -28 -27 -29 -31 -33 -33 -34 -34 -34 -34 -34 -35 -35 -37 -39 -38 -38 -38 -39 -41 -41 -41 -42 -42 -42 -43 -43 -44 -44 -44 -43 -43 -42 -42 -41 -42 -42 -55 -59 -79 -85 -77 -69 -66 -64 -62 -55 -48 -42 -37 -32 -28 -21 -18 -13 -7 -5 3 4 10 15 18 24 27 33 38 42 47 53 55 64 68 72 76 87 94 107 121 133 138 160 169 176 191 200 206 222 229 241 244 256 255 262 272 278 278 277 288 299 305 315 315 325 327 338 349 363 369 382 387 398 405 409 417 427 435 438 446 456 457 469 471 476 486 492 500 509 522 529 537 543 545 556 562 568 572 582 591 596 599 604 610 612 620 625 626 627 632 636 640 643 651 656 659 666 665 668 680 687 687 700 701 710 713 722 722 728 736 742 744 746 749 760 768 776 794 796 799 801 814 826 837 849 852 856 862 864 874 882 895 899 910 924 929 935 951 969 987 1007 1029 1058 1074 1086 1109 1127 1146 1168 1170 1197 1224 1243 1269 1299 1312 1319 1338 1346 1352 1346 1355 1374 1371 1385 1397 1412 1425 1443 1448 1457 1464 1470 1473 1475 1475 1469 1464 1466 1469 1478 1489 1494 1494 1488 1483 1483 1484 1482 1476 1474 1477 1476 1476 1474 1474 1475 1475 1470 1470 1467 1465 1462 1457 1453 1453 1448 1445 1446 1448 1447 1445 1443 1442 1444 1442 1439 1436 1434 1433 1430 1430 1428 1426 1424 1421 1419 1413 1408 1404 1397 1391 1385 1380 1375 1371 1366 1363 1361 1358 1356 1355 1351 1349 1344 1342 1342 1342 1343 1344 1344 1342 1341 1342 1345 1346 1347 1347 1344 1343 1339 1336 1336 1335 1335 1333 1333 1332 1330 1328 1327 1327 1329 1330 1332 1334 1336 1338 1340 1341 1341 1344 1347 1351 1354 1357 1361 1364 1369 1372 1376 1379 1383 1387 1391 1396 1401 1404 1409 1414 1418 1421 1424 1426 1428 1431 1433 1436 1439 1443 1447 1453 1458 1464 1468 1472 1475 1474 1472 1475 1480 1483 1483 1483 1483 1483 1485 1484 1484 1483 1484 1483 1482 1480 1479 1477
-1 -1 0 -1 -1 -1 0 0 0 0 -1 -1 -1 -2 -1 -2 -1 -3 -3 -3 -3 -2 -3 -3 -3 -3 -5 -6 -6 -8 -10 -12 -12 -12 -12 -12 -13 -13 -13 -13 -12 -13 -11 -10 -10 -8 -8 -7 -6 -7 -7 -3 0 -1 0 1 2 2 2 3 5 6 8 7 7 7 6 6 8 10 10 9 6 4 3 2 1 0 0 0 -1 -1 -2 -4 -5 -6 -8 -9 -9 -9 -10 -12 -14 -14 -13 -15 -13 -12 -10 -10 -10 -10 -11 -12 -11 -10 -11 -11 -11 -11 -13 -14 -15 -17 -18 -19 -19 -20 -21 -21 -23 -25 -27 -27 -28 -30 -32 -33 -34 -34 -33 -33 -34 -34 -34 -37 -38 -37 -37 -38 -39 -40 -41 -41 -42 -42 -43 -43 -44 -44 -44 -45 -44 -44 -43 -43 -43 -44 -44 -57 -61 -81 -88 -80 -72 -69 -68 -66 -59 -52 -47 -41 -37 -33 -26 -23 -18 -13 -11 -2 -1 4 9 12 18 21 26 30 34 39 44 46 55 60 63 66 77 84 97 111 122 127 149 158 165 179 189 194 211 218 230 233 245 244 251 261 267 267 266 277 288 295 305 305 315 317 327 339 353 359 372 377 388 395 400 408 418 426 429 437 447 449 461 464 468 478 484 493 502 515 522 530 537 539 550 556 562 566 577 586 591 594 599 606 608 617 622 623 625 630 634 638 642 650 656 659 666 665 669 681 688 688 701 703 712 716 725 725 731 739 745 747 750 753 764 772 780 797 799 802 804 817 829 840 852 855 859 864 867 877 884 898 902 913 927 932 938 953 972 990 1010 1032 1062 1077 1090 1112 1131 1149 1171 1173 1199 1226 1244 1270 1299 1311 1317 1335 1344 1350 1344 1352 1371 1368 1382 1394 1409 1422 1439 1444 1453 1460 1465 1468 1471 1470 1465 1459 1461 1464 1473 1484 1488 1488 1482 1477 1477 1478 1475 1469 1468 1471 1470 1470 1468 1468 1469 1469 1464 1464 1462 1459 1456 1452 1448 1448 1443 1440 1441 1443 1443 1441 1439 1438 1440 1438 1435 1432 1430 1430 1427 1427 1425 1424 1422 1419 1417 1411 1406 1402 1395 1390 1383 1379 1374 1370 1365 1362 1361 1358 1356 1355 1351 1348 1343 1341 1342 1341 1343 1344 1344 1342 1341 1342 1344 1346 1347 1347 1344 1343 1339 1337 1337 1335 1336 1334 1334 1333 1331 1329 1328 1328 1329 1331 1332 1334 1337 1339 1341 1342 1342 1344 1348 1351 1354 1358 1362 1365 1369 1372 1377 1380 1384 1388 1392 1396 1401 1405 1410 1414 1418 1421 1425 1426 1428 1431 1434 1437 1440 1443 1447 1453 1459 1464 1468 1473 1475 1474 1472 1475 1480 1483 1483 1484 1483 1484 1485 1484 1484 1483 1484 1483 1483 1481 1479 1477
-1 0 0 -1 0 0 0 0 0 0 -1 0 0 -1 -1 -1 0 -2 -2 -3 -2 -2 -2 -2 -2 -2 -4 -5 -5 -7 -9 -11 -12 -11 -11 -12 -13 -12 -12 -13 -12 -13 -11 -10 -9 -8 -7 -7 -6 -7 -7 -3 0 -1 0 1 2 2 3 4 6 6 8 8 8 8 6 6 8 10 11 9 6 4 3 2 1 0 0 0 -1 -1 -2 -4 -5 -6 -8 -9 -9 -9 -10 -12 -14 -14 -13 -15 -14 -12 -10 -10 -10 -10 -12 -12 -11 -10 -11 -11 -11 -11 -12 -14 -14 -16 -18 -18 -19 -19 -20 -20 -22 -24 -26 -26 -27 -29 -31 -32 -32 -32 -32 -32 -32 -33 -33 -36 -37 -36 -36 -36 -38 -39 -39 -39 -40 -41 -41 -42 -42 -43 -43 -44 -43 -43 -42 -42 -42 -44 -44 -56 -60 -80 -87 -79 -72 -69 -68 -66 -59 -53 -47 -42 -37 -33 -27 -24 -19 -14 -12 -4 -3 2 7 10 16 18 23 28 32 36 41 43 51 56 59 62 73 80 92 106 117 122 143 152 159 174 183 189 205 212 224 228 239 238 246 255 261 261 260 271 282 289 299 299 309 311 322 333 347 353 367 372 383 390 394 403 412 421 424 432 442 444 456 459 464 474 480 488 498 511 518 526 533 535 546 552 558 563 573 583 588 590 596 602 605 614 620 621 622 628 632 637 641 649 655 659 665 666 669 681 689 689 702 704 713 718 727 727 734 742 748 750 752 756 767 775 783 800 802 804 807 820 832 843 854 857 861 867 870 880 887 901 905 916 930 936 941 957 976 994 1014 1036 1066 1082 1094 1117 1136 1154 1175 1177 1203 1230 1248 1272 1300 1312 1317 1335 1344 1350 1344 1352 1372 1368 1382 1394 1409 1421 1438 1442 1452 1458 1464 1466 1469 1468 1463 1457 1459 1462 1471 1481 1486 1486 1479 1474 1474 1475 1472 1466 1464 1467 1466 1466 1464 1464 1466 1466 1460 1461 1458 1456 1453 1449 1445 1445 1440 1437 1438 1440 1440 1438 1436 1436 1437 1435 1433 1429 1428 1427 1425 1425 1423 1422 1420 1417 1415 1410 1404 1400 1394 1388 1382 1377 1373 1369 1365 1361 1360 1357 1355 1354 1350 1347 1343 1341 1341 1341 1342 1343 1343 1341 1340 1341 1344 1346 1346 1347 1344 1343 1339 1337 1337 1335 1336 1334 1334 1333 1331 1329 1328 1329 1330 1332 1333 1335 1338 1340 1342 1343 1343 1345 1349 1352 1355 1359 1362 1366 1370 1373 1378 1381 1385 1389 1393 1398 1403 1406 1411 1416 1419 1423 1426 1428 1430 1433 1435 1438 1441 1445 1449 1455 1460 1466 1470 1474 1477 1475 1474 1477 1482 1484 1484 1485 1485 1485 1486 1486 1485 1484 1485 1484 1484 1482 1480 1478
-1 0 0 0 0 0 0 0 1 0 0 0 0 0 0 0 0 -1 -2 -2 -1 -1 -1 -2 -2 -2 -3 -4 -5 -7 -9 -11 -11 -11 -11 -12 -13 -12 -12 -13 -12 -13 -11 -10 -9 -8 -8 -7 -6 -7 -7 -3 0 -1 0 1 2 2 3 4 6 7 8 8 8 8 7 7 8 11 11 10 7 4 3 2 2 0 1 0 0 0 -1 -4 -5 -5 -7 -8 -8 -9 -9 -11 -14 -14 -13 -14 -13 -12 -10 -10 -10 -10 -11 -12 -11 -10 -11 -10 -11 -10 -12 -13 -14 -16 -17 -17 -18 -19 -20 -20 -22 -23 -25 -25 -26 -28 -30 -31 -32 -32 -32 -32 -32 -33 -33 -35 -37 -36 -36 -36 -38 -39 -39 -39 -40 -41 -42 -42 -43 -44 -44 -45 -44 -44 -44 -44 -44 -45 -46 -58 -62 -81 -89 -82 -75 -72 -71 -70 -63 -56 -51 -46 -41 -37 -31 -28 -24 -18 -17 -8 -7 -2 2 5 10 13 18 22 25 30 35 36 45 49 52 55 66 72 84 98 109 113 135 143 150 165 174 180 196 203 216 219 231 230 237 247 253 253 252 262 274 281 291 291 301 303 314 325 340 345 359 364 375 382 387 395 405 414 417 425 436 437 450 452 458 468 474 482 492 505 512 521 527 530 541 547 553 558 568 579 584 587 593 599 603 612 618 619 621 627 631 636 641 649 655 659 667 667 671 684 691 692 705 707 717 722 732 732 739 747 753 755 758 761 773 781 789 806 808 810 813 826 838 849 861 863 868 874 877 887 894 908 912 924 938 943 949 965 984 1002 1023 1045 1075 1091 1103 1126 1145 1163 1184 1186 1211 1238 1255 1279 1306 1316 1321 1338 1347 1353 1347 1356 1375 1372 1385 1397 1411 1423 1440 1444 1453 1459 1465 1467 1469 1468 1463 1457 1460 1461 1470 1481 1485 1485 1478 1473 1472 1473 1470 1464 1462 1465 1464 1464 1461 1461 1463 1463 1457 1458 1455 1453 1451 1446 1442 1443 1438 1434 1435 1437 1437 1435 1434 1433 1434 1432 1430 1427 1425 1425 1423 1422 1421 1420 1418 1415 1413 1408 1403 1399 1392 1387 1381 1376 1372 1368 1363 1360 1359 1356 1354 1353 1350 1347 1342 1340 1340 1340 1342 1342 1343 1341 1340 1341 1343 1345 1346 1347 1344 1343 1340 1337 1337 1336 1336 1334 1335 1334 1332 1330 1329 1330 1331 1333 1334 1336 1339 1341 1343 1344 1345 1347 1350 1354 1357 1360 1364 1367 1371 1375 1379 1382 1387 1390 1394 1399 1404 1408 1412 1417 1421 1424 1427 1429 1431 1434 1437 1440 1443 1446 1450 1456 1461 1467 1471 1475 1478 1476 1475 1478 1482 1485 1485 1486 1485 1486 1487 1486 1486 1485 1486 1485 1484 1482 1480 1478
0 0 0 0 0 0 0 1 1 1 0 0 0 0 0 0 0 0 -1 -1 0 0 -1 -1 -1 -1 -3 -4 -4 -6 -8 -10 -11 -10 -10 -11 -12 -11 -12 -12 -11 -12 -10 -10 -9 -8 -7 -6 -5 -7 -7 -3 0 0 0 1 3 3 4 5 7 8 9 9 10 10 8 8 10 12 12 10 8 5 4 3 3 1 1 1 0 0 0 -3 -4 -5 -7 -7 -7 -8 -8 -11 -13 -13 -12 -14 -13 -12 -10 -10 -10 -10 -11 -12 -11 -10 -10 -10 -10 -10 -11 -13 -13 -15 -16 -17 -17 -18 -19 -19 -21 -22 -24 -24 -25 -28 -29 -30 -31 -31 -31 -31 -31 -32 -32 -35 -36 -35 -35 -35 -37 -38 -38 -38 -39 -40 -41 -42 -42 -43 -43 -44 -44 -44 -43 -44 -43 -45 -46 -57 -61 -80 -88 -81 -74 -72 -72 -70 -64 -57 -51 -46 -42 -38 -32 -29 -24 -19 -18 -9 -8 -2 1 4 9 12 16 20 24 28 33 34 42 47 49 52 63 69 81 94 105 110 131 139 146 161 171 176 192 199 212 216 227 226 234 243 249 250 248 259 271 278 288 288 298 300 311 323 337 343 357 362 373 380 385 394 403 412 415 424 434 436 449 452 457 468 473 482 492 505 512 521 528 530 541 548 554 559 570 580 585 589 594 601 605 614 621 622 624 630 635 640 645 654 660 665 672 673 677 690 697 698 712 714 724 729 739 739 746 755 761 763 766 769 780 788 796 814 815 817 819 833 845 856 867 869 874 880 883 893 900 914 918 929 944 949 954 970 989 1007 1028 1050 1080 1097 1108 1131 1149 1168 1188 1190 1215 1241 1257 1280 1307 1316 1319 1336 1346 1351 1345 1354 1373 1369 1383 1395 1408 1420 1437 1440 1449 1455 1460 1462 1464 1463 1458 1452 1454 1455 1464 1474 1479 1479 1472 1466 1466 1467 1463 1457 1455 1458 1457 1457 1455 1455 1456 1456 1451 1451 1449 1447 1445 1441 1437 1438 1433 1430 1430 1433 1433 1431 1430 1429 1430 1429 1426 1423 1422 1422 1420 1420 1419 1418 1416 1414 1412 1407 1402 1398 1391 1386 1380 1376 1372 1369 1364 1361 1359 1357 1355 1354 1350 1348 1343 1341 1341 1341 1343 1344 1344 1342 1341 1342 1345 1347 1348 1348 1345 1344 1341 1339 1339 1338 1338 1336 1336 1336 1334 1332 1331 1332 1333 1334 1336 1338 1341 1343 1345 1346 1347 1349 1352 1355 1358 1361 1365 1368 1373 1376 1380 1383 1388 1391 1395 1400 1405 1409 1413 1418 1421 1425 1428 1430 1432 1435 1438 1440 1444 1447 1451 1457 1462 1467 1471 1476 1478 1476 1475 1478 1483 1486 1486 1486 1486 1486 1487 1487 1486 1485 1486 1485 1484 1482 1481 1478
0 0 1 0 0 0 0 1 1 1 0 0 0 0 0 0 0 0 -1 -1 0 0 -1 -1 -1 -1 -3 -4 -5 -7 -8 -10 -11 -11 -11 -11 -12 -12 -12 -12 -12 -12 -10 -10 -9 -8 -7 -7 -5 -7 -7 -3 0 0 0 2 3 3 4 6 8 9 11 11 11 11 10 9 11 13 14 12 9 7 6 5 5 3 3 3 1 1 1 -1 -2 -3 -5 -5 -5 -6 -7 -9 -11 -12 -11 -12 -12 -10 -9 -9 -9 -9 -10 -11 -10 -9 -10 -9 -10 -9 -11 -12 -13 -15 -16 -16 -17 -18 -19 -19 -21 -22 -24 -24 -26 -28 -30 -31 -32 -32 -32 -32 -32 -33 -33 -36 -37 -36 -36 -37 -38 -39 -40 -40 -41 -42 -42 -43 -44 -44 -45 -46 -45 -45 -45 -45 -45 -47 -48 -59 -62 -81 -89 -82 -76 -73 -73 -72 -65 -58 -53 -48 -43 -39 -33 -30 -26 -20 -19 -10 -9 -3 0 3 8 11 15 19 23 27 32 33 41 45 48 51 61 68 79 92 103 107 128 136 143 158 168 174 190 197 210 214 225 224 232 241 247 247 246 257 269 276 286 285 296 298 309 320 335 340 354 360 371 378 382 391 401 410 413 421 432 434 447 449 455 465 471 479 489 502 509 518 525 528 539 545 552 557 568 578 583 587 593 600 604 614 620 622 624 631 636 641 646 655 663 667 675 677 681 694 702 703 716 719 730 735 745 746 753 762 768 771 774 777 788 797 804 822 824 825 828 842 854 865 876 878 882 888 892 902 910 923 928 939 953 959 964 980 999 1017 1038 1060 1090 1107 1118 1141 1160 1178 1198 1199 1223 1249 1265 1287 1312 1320 1323 1339 1349 1354 1348 1356 1375 1371 1384 1396 1409 1420 1436 1439 1448 1453 1458 1459 1461 1460 1454 1448 1450 1451 1459 1469 1473 1473 1465 1460 1459 1460 1456 1449 1447 1450 1449 1448 1446 1446 1447 1447 1442 1442 1440 1438 1436 1432 1428 1429 1424 1421 1422 1424 1424 1422 1421 1421 1422 1420 1418 1415 1414 1414 1413 1413 1412 1411 1410 1407 1406 1401 1396 1392 1386 1381 1376 1371 1368 1365 1360 1357 1356 1354 1353 1351 1348 1346 1341 1339 1340 1340 1342 1343 1343 1342 1341 1341 1344 1347 1348 1348 1346 1345 1342 1340 1340 1339 1340 1338 1338 1338 1336 1335 1334 1334 1335 1337 1339 1341 1344 1346 1348 1349 1349 1351 1354 1357 1360 1363 1367 1370 1375 1378 1383 1386 1390 1393 1397 1402 1407 1410 1415 1419 1423 1426 1429 1431 1433 1436 1439 1442 1445 1448 1452 1457 1462 1468 1471 1476 1478 1476 1475 1478 1483 1485 1485 1486 1485 1486 1487 1486 1486 1485 1485 1484 1484 1482 1480 1478
0 1 2 1 1 1 1 2 2 2 0 0 1 0 0 0 1 0 -1 -1 0 0 -1 -1 -1 -1 -3 -4 -5 -7 -9 -11 -11 -11 -11 -12 -13 -12 -12 -12 -12 -13 -11 -10 -9 -8 -7 -7 -5 -7 -6 -2 0 0 1 2 4 4 5 7 9 10 12 12 13 13 11 11 13 15 16 14 11 9 8 7 7 6 6 5 4 4 3 1 0 0 -2 -2 -3 -3 -4 -6 -9 -9 -8 -10 -9 -8 -7 -7 -7 -7 -9 -9 -8 -7 -8 -8 -8 -8 -10 -11 -11 -14 -15 -16 -17 -17 -19 -19 -21 -22 -24 -24 -26 -28 -30 -32 -33 -33 -33 -33 -34 -34 -34 -37 -39 -38 -38 -39 -40 -41 -42 -42 -43 -44 -44 -45 -46 -47 -47 -48 -48 -48 -47 -48 -48 -50 -50 -61 -64 -83 -91 -85 -78 -76 -76 -74 -68 -61 -55 -50 -45 -41 -35 -31 -27 -22 -20 -12 -11 -5 0 2 7 10 14 18 22 26 31 32 40 44 47 50 60 67 78 91 102 106 127 134 142 157 167 172 188 196 209 213 224 223 231 240 246 246 245 255 267 274 284 284 294 296 307 318 333 338 352 357 368 375 380 388 398 407 410 418 428 430 443 446 451 462 467 476 485 498 505 514 521 524 535 541 548 553 564 574 579 584 590 597 601 611 618 620 622 629 634 640 645 655 662 667 676 678 683 695 703 705 719 722 733 739 750 751 758 768 774 777 780 784 796 804 812 830 832 834 836 851 863 874 886 888 892 899 902 913 921 934 940 951 966 972 977 993 1012 1030 1052 1074 1105 1122 1133 1156 1175 1193 1213 1214 1238 1263 1278 1299 1324 1331 1333 1349 1359 1364 1358 1366 1385 1381 1393 1405 1418 1429 1444 1447 1455 1460 1465 1465 1466 1465 1459 1453 1454 1455 1462 1472 1476 1475 1467 1462 1460 1460 1456 1449 1446 1449 1447 1447 1444 1444 1445 1445 1439 1439 1437 1435 1433 1429 1425 1425 1420 1417 1417 1420 1420 1418 1416 1416 1417 1415 1413 1410 1409 1409 1407 1408 1407 1406 1405 1403 1401 1396 1391 1388 1382 1377 1372 1368 1364 1361 1357 1354 1353 1351 1350 1349 1345 1343 1339 1337 1338 1338 1340 1341 1341 1340 1339 1340 1343 1346 1347 1348 1345 1345 1342 1340 1341 1340 1340 1339 1339 1339 1338 1336 1335 1336 1337 1339 1341 1343 1346 1348 1350 1351 1352 1354 1357 1360 1363 1366 1370 1373 1377 1381 1385 1388 1392 1396 1400 1404 1409 1412 1417 1421 1424 1428 1431 1433 1435 1438 1440 1443 1446 1449 1453 1459 1463 1468 1472 1476 1478 1477 1475 1478 1483 1486 1485 1486 1485 1486 1486 1486 1485 1484 1485 1484 1483 1481 1479 1477
1 2 2 1 1 1 2 2 3 2 1 1 1 0 1 0 1 0 0 -1 0 0 0 0 -1 -1 -2 -4 -4 -6 -8 -10 -11 -11 -11 -11 -12 -11 -12 -12 -12 -12 -10 -10 -9 -8 -7 -6 -5 -6 -6 -2 1 0 1 3 5 5 6 8 10 11 13 14 14 14 13 12 14 17 17 15 12 10 9 8 8 7 7 6 5 5 5 2 1 0 -1 -1 -1 -2 -3 -5 -8 -8 -7 -9 -9 -8 -6 -6 -7 -7 -8 -9 -8 -7 -8 -8 -8 -8 -9 -11 -11 -13 -15 -15 -16 -17 -18 -19 -21 -22 -24 -23 -25 -28 -30 -31 -32 -33 -33 -33 -34 -34 -34 -37 -38 -38 -38 -38 -40 -41 -41 -41 -42 -43 -44 -45 -45 -46 -47 -47 -47 -47 -47 -47 -47 -49 -50 -60 -63 -82 -90 -84 -77 -75 -75 -74 -67 -60 -55 -49 -45 -41 -34 -31 -27 -21 -20 -11 -10 -4 0 2 8 10 14 18 22 26 31 32 40 44 46 50 60 66 77 90 101 104 125 133 140 155 165 171 187 194 207 212 223 221 229 239 245 245 243 254 266 273 283 282 293 295 305 317 331 337 350 356 367 374 378 387 396 405 408 416 427 429 442 444 450 461 466 475 484 497 504 513 520 523 534 540 547 552 563 573 579 583 589 597 601 611 618 620 623 630 635 641 647 656 664 669 678 681 686 698 706 708 722 725 737 743 754 755 763 772 778 781 785 788 800 809 817 835 836 838 840 855 868 878 890 892 896 903 906 917 925 939 944 955 970 976 981 997 1016 1035 1056 1079 1109 1127 1137 1160 1179 1197 1216 1217 1241 1266 1280 1300 1325 1330 1331 1347 1357 1362 1356 1364 1383 1378 1391 1402 1415 1425 1440 1443 1450 1455 1460 1460 1461 1460 1454 1447 1449 1449 1456 1466 1470 1469 1461 1455 1454 1453 1449 1442 1439 1442 1440 1440 1437 1437 1438 1438 1433 1433 1430 1428 1426 1422 1419 1420 1414 1411 1412 1414 1414 1412 1411 1411 1412 1410 1408 1405 1404 1404 1403 1404 1403 1403 1401 1399 1398 1393 1389 1385 1379 1375 1370 1366 1363 1360 1356 1353 1352 1351 1349 1348 1345 1343 1339 1337 1338 1338 1341 1341 1342 1340 1340 1340 1344 1346 1348 1348 1346 1346 1343 1341 1342 1341 1342 1340 1341 1340 1339 1338 1337 1338 1339 1341 1342 1345 1348 1350 1352 1353 1354 1356 1358 1361 1364 1367 1371 1374 1379 1382 1386 1389 1394 1397 1401 1405 1410 1413 1418 1422 1425 1428 1431 1433 1436 1438 1441 1444 1447 1450 1453 1459 1463 1469 1472 1476 1478 1477 1475 1478 1482 1485 1485 1485 1485 1485 1486 1486 1485 1484 1484 1483 1483 1480 1479 1476
0 1 2 0 1 1 1 1 2 1 0 0 0 0 0 0 1 0 -1 -1 0 0 -1 -1 -1 -1 -3 -4 -5 -7 -8 -10 -11 -11 -11 -11 -12 -11 -11 -12 -11 -12 -10 -9 -9 -7 -6 -5 -4 -6 -5 -1 2 1 2 4 6 6 7 9 12 13 15 15 16 16 14 14 16 18 18 17 14 11 11 10 10 8 8 8 6 6 6 3 2 1 0 0 0 -1 -2 -5 -7 -8 -7 -9 -9 -8 -7 -7 -7 -7 -9 -10 -9 -8 -9 -9 -9 -8 -10 -11 -12 -14 -16 -16 -17 -18 -19 -20 -22 -23 -25 -24 -26 -29 -31 -32 -34 -34 -34 -35 -35 -35 -35 -38 -39 -39 -39 -39 -40 -41 -42 -42 -43 -44 -44 -45 -46 -47 -47 -48 -47 -47 -47 -47 -47 -49 -50 -60 -63 -81 -89 -83 -77 -74 -75 -74 -67 -60 -54 -49 -44 -40 -34 -31 -26 -21 -20 -11 -10 -4 0 2 8 10 14 18 21 25 31 31 39 43 45 48 58 64 76 88 98 101 122 129 137 152 162 168 183 191 204 209 220 218 226 236 241 241 240 251 262 269 279 279 289 292 302 314 328 334 347 353 363 370 375 383 393 402 405 414 424 426 440 442 448 459 464 473 483 495 503 512 519 522 533 540 547 552 563 574 579 584 590 598 602 613 620 623 626 633 639 645 651 660 669 674 683 686 692 704 713 714 729 732 744 750 761 763 770 780 786 789 792 796 808 816 824 842 843 844 846 861 874 884 895 896 901 907 911 922 929 942 947 959 973 979 983 999 1018 1036 1057 1080 1110 1127 1137 1160 1178 1196 1215 1215 1238 1262 1275 1295 1318 1322 1322 1337 1347 1352 1346 1353 1372 1367 1379 1391 1403 1413 1427 1429 1436 1441 1445 1445 1445 1444 1438 1432 1433 1433 1440 1450 1453 1452 1444 1439 1437 1437 1432 1425 1423 1426 1424 1424 1421 1421 1423 1423 1418 1418 1416 1414 1413 1410 1407 1408 1402 1400 1401 1403 1404 1403 1402 1402 1403 1402 1400 1397 1397 1398 1397 1398 1398 1398 1397 1395 1394 1390 1386 1383 1377 1373 1369 1365 1363 1360 1356 1354 1353 1352 1351 1350 1347 1345 1341 1340 1340 1341 1343 1344 1344 1343 1342 1343 1347 1350 1351 1351 1350 1349 1347 1345 1346 1345 1345 1344 1344 1344 1343 1341 1340 1341 1342 1343 1345 1348 1350 1352 1354 1355 1356 1358 1360 1363 1366 1368 1372 1375 1379 1383 1387 1390 1394 1397 1401 1405 1410 1413 1417 1421 1424 1427 1430 1432 1434 1437 1440 1443 1445 1448 1452 1457 1462 1467 1470 1474 1476 1475 1473 1476 1481 1484 1483 1484 1483 1484 1484 1484 1483 1482 1483 1482 1481 1479 1477 1475
1 1 2 1 1 1 1 2 2 1 0 0 1 0 0 0 1 0 -1 -1 0 0 -1 -1 -1 -2 -3 -4 -5 -7 -9 -11 -12 -11 -11 -11 -12 -11 -12 -12 -12 -12 -10 -10 -9 -7 -6 -5 -4 -6 -5 -1 2 1 3 4 6 6 8 10 13 14 16 17 17 17 16 15 17 20 20 18 15 13 12 12 11 10 10 9 8 8 8 5 4 3 2 1 1 0 0 -3 -5 -6 -5 -7 -7 -6 -5 -6 -6 -6 -8 -9 -8 -7 -8 -8 -8 -8 -10 -11 -11 -14 -15 -16 -17 -18 -19 -20 -22 -23 -25 -25 -27 -30 -32 -33 -34 -35 -35 -36 -36 -36 -36 -39 -41 -40 -40 -41 -42 -43 -43 -43 -44 -45 -46 -47 -47 -48 -48 -49 -49 -49 -49 -49 -49 -51 -51 -61 -64 -81 -90 -83 -77 -75 -76 -75 -68 -61 -55 -50 -45 -41 -34 -31 -26 -21 -20 -11 -10 -3 0 3 9 11 15 18 22 26 31 32 39 44 46 49 59 65 76 89 98 102 122 129 137 152 162 168 184 191 205 209 220 219 227 237 242 242 241 252 263 270 280 280 290 292 303 314 329 334 348 353 364 371 375 383 393 402 405 413 424 426 439 442 447 458 464 472 481 494 501 510 517 521 532 538 545 550 561 571 577 582 588 596 600 611 619 621 624 632 638 644 650 660 668 674 683 687 692 704 713 715 729 733 745 751 762 764 771 781 787 790 794 797 809 817 825 843 844 845 847 863 875 885 896 897 902 908 912 923 931 944 949 961 976 981 986 1001 1020 1039 1060 1083 1113 1130 1140 1163 1181 1199 1217 1217 1239 1264 1276 1294 1317 1321 1319 1334 1344 1350 1343 1351 1370 1365 1376 1388 1399 1409 1423 1425 1432 1436 1441 1440 1440 1439 1433 1427 1428 1427 1434 1443 1447 1446 1438 1432 1430 1430 1425 1418 1415 1418 1417 1416 1413 1414 1415 1415 1410 1411 1408 1407 1406 1403 1400 1401 1396 1393 1394 1397 1398 1396 1395 1395 1396 1396 1394 1391 1391 1392 1392 1393 1393 1393 1392 1391 1390 1386 1382 1379 1374 1370 1366 1362 1360 1358 1354 1352 1351 1351 1349 1349 1346 1343 1340 1339 1340 1340 1343 1343 1344 1343 1342 1343 1346 1349 1351 1352 1350 1349 1347 1346 1347 1346 1346 1345 1345 1345 1344 1343 1342 1342 1343 1345 1347 1349 1352 1354 1356 1357 1358 1360 1362 1364 1367 1370 1373 1376 1381 1384 1388 1391 1395 1398 1402 1406 1410 1414 1418 1421 1425 1427 1430 1433 1435 1437 1440 1443 1445 1448 1452 1457 1461 1466 1470 1474 1475 1474 1472 1475 1480 1482 1482 1483 1482 1482 1483 1483 1482 1481 1481 1481 1480 1478 1476 1474
2 2 3 2 2 2 2 2 3 2 1 1 1 0 1 0 1 0 0 -1 0 0 0 -1 -1 -1 -3 -4 -5 -7 -8 -10 -11 -11 -11 -11 -12 -11 -11 -11 -11 -12 -10 -9 -8 -7 -6 -5 -3 -5 -4 0 3 2 4 6 8 8 9 12 15 16 18 19 19 20 18 18 20 22 22 21 18 15 14 14 14 13 13 12 11 11 10 8 6 6 4 4 3 3 1 0 -3 -4 -3 -5 -5 -4 -4 -4 -5 -5 -7 -8 -7 -6 -7 -7 -7 -7 -9 -10 -11 -13 -14 -15 -17 -17 -19 -20 -22 -23 -25 -25 -27 -30 -32 -34 -35 -35 -36 -36 -37 -37 -37 -40 -41 -41 -41 -41 -42 -43 -43 -43 -45 -45 -46 -47 -47 -48 -48 -49 -49 -48 -48 -48 -48 -50 -50 -59 -62 -79 -87 -81 -75 -73 -74 -73 -66 -58 -52 -46 -42 -38 -31 -27 -23 -17 -16 -7 -5 0 5 8 14 16 20 24 28 32 37 38 45 50 52 55 65 71 82 95 104 107 128 135 142 158 168 174 190 197 211 216 227 225 234 243 249 249 247 258 269 276 286 286 296 298 308 320 334 339 353 358 369 375 380 388 397 406 409 417 427 429 443 445 451 462 467 475 484 496 503 512 519 522 533 540 546 552 562 573 578 583 589 597 602 613 620 623 626 633 639 646 652 662 670 676 686 690 695 707 716 718 732 736 748 755 766 768 776 786 791 795 798 802 814 822 830 848 849 850 852 868 880 890 901 902 906 913 917 928 936 949 954 966 981 987 991 1007 1026 1044 1066 1089 1119 1137 1146 1169 1187 1205 1223 1222 1244 1268 1280 1297 1319 1322 1319 1334 1344 1350 1343 1351 1370 1364 1376 1387 1399 1408 1422 1423 1430 1434 1438 1437 1436 1435 1429 1423 1424 1423 1430 1438 1442 1441 1432 1427 1425 1424 1419 1412 1409 1412 1410 1409 1407 1407 1408 1408 1404 1404 1402 1400 1400 1396 1394 1395 1389 1387 1388 1391 1392 1390 1389 1390 1391 1390 1389 1386 1386 1387 1387 1389 1389 1389 1388 1387 1386 1382 1379 1376 1371 1367 1363 1360 1358 1356 1352 1351 1351 1350 1349 1348 1345 1343 1340 1339 1340 1340 1343 1344 1344 1343 1343 1344 1347 1351 1352 1353 1351 1351 1349 1348 1349 1348 1348 1347 1348 1348 1347 1345 1345 1345 1346 1348 1350 1352 1355 1357 1359 1360 1361 1363 1364 1367 1370 1372 1376 1379 1383 1386 1390 1393 1397 1400 1404 1408 1412 1415 1419 1423 1426 1429 1431 1433 1436 1438 1441 1443 1446 1449 1452 1457 1461 1466 1470 1473 1475 1473 1472 1475 1479 1482 1481 1482 1481 1481 1482 1482 1481 1480 1480 1479 1478 1476 1474 1472
3 3 4 3 3 3 3 3 4 3 2 2 2 1 1 1 2 0 0 0 0 0 0 0 0 -1 -2 -4 -4 -6 -8 -10 -11 -11 -10 -11 -11 -11 -11 -11 -11 -11 -10 -9 -8 -6 -5 -4 -3 -4 -4 0 3 3 5 6 8 9 11 13 16 17 19 20 21 22 20 20 22 24 24 23 20 17 16 16 16 15 15 14 13 13 13 10 9 8 7 6 6 5 4 1 -1 -1 -1 -3 -3 -2 -2 -2 -3 -3 -5 -6 -6 -5 -6 -6 -5 -6 -8 -9 -9 -12 -13 -14 -16 -17 -18 -19 -21 -22 -24 -24 -26 -30 -32 -34 -35 -36 -36 -37 -37 -37 -37 -40 -42 -41 -41 -42 -43 -44 -44 -44 -45 -46 -47 -48 -48 -49 -49 -50 -49 -49 -49 -49 -49 -50 -51 -59 -62 -78 -87 -81 -75 -73 -74 -73 -66 -58 -52 -46 -41 -37 -30 -26 -21 -16 -14 -5 -3 3 8 11 17 19 23 27 31 35 41 42 49 54 55 59 70 76 86 99 108 111 132 139 147 162 173 179 194 202 217 221 232 231 239 249 255 255 254 264 276 283 293 292 302 304 314 326 340 345 359 364 374 381 385 393 402 411 414 422 432 434 447 450 455 466 471 478 487 500 506 515 522 525 536 542 548 553 564 574 579 584 591 598 603 614 621 624 626 634 640 647 653 662 671 677 687 691 696 708 717 719 733 737 749 756 768 770 777 787 793 796 800 803 815 823 831 849 850 851 853 869 881 891 902 903 907 914 919 930 938 951 956 968 983 989 994 1009 1028 1047 1069 1092 1122 1140 1149 1172 1190 1208 1226 1225 1247 1270 1281 1298 1319 1321 1318 1333 1344 1349 1343 1350 1369 1364 1376 1387 1398 1407 1421 1422 1428 1433 1436 1435 1434 1433 1427 1421 1422 1421 1427 1436 1439 1438 1430 1424 1422 1421 1416 1409 1406 1409 1407 1406 1403 1403 1404 1404 1400 1401 1398 1397 1396 1393 1391 1392 1386 1384 1385 1387 1388 1387 1386 1387 1387 1387 1385 1383 1383 1383 1384 1385 1386 1386 1385 1384 1383 1380 1376 1373 1369 1365 1361 1358 1356 1354 1351 1349 1349 1349 1348 1347 1344 1342 1339 1338 1339 1339 1342 1343 1343 1342 1342 1343 1347 1350 1352 1352 1351 1351 1349 1348 1349 1348 1349 1347 1348 1348 1347 1346 1346 1346 1347 1349 1351 1353 1356 1358 1360 1361 1362 1364 1366 1368 1371 1374 1377 1380 1385 1388 1391 1394 1398 1401 1405 1409 1413 1417 1420 1424 1427 1430 1432 1435 1437 1439 1442 1444 1447 1450 1453 1458 1462 1467 1470 1474 1475 1473 1472 1475 1479 1482 1481 1481 1481 1481 1482 1481 1480 1479 1479 1479 1478 1475 1473 1471
3 4 5 4 4 4 4 4 5 4 3 3 3 2 3 2 3 1 0 0 1 1 0 0 0 0 -1 -3 -4 -6 -7 -9 -11 -10 -10 -11 -11 -10 -11 -11 -11 -12 -10 -9 -8 -7 -6 -5 -4 -5 -5 0 2 2 4 5 7 8 10 12 15 16 19 20 20 21 19 19 21 23 23 22 19 16 16 16 16 14 14 14 12 13 12 10 9 8 7 7 6 6 4 2 0 -1 0 -2 -2 -2 -1 -1 -2 -3 -4 -5 -5 -4 -5 -4 -4 -4 -6 -7 -8 -10 -12 -12 -14 -15 -17 -18 -20 -20 -22 -22 -25 -28 -30 -32 -34 -35 -35 -36 -36 -37 -37 -40 -41 -41 -41 -42 -43 -44 -44 -44 -46 -47 -47 -48 -49 -50 -50 -51 -51 -50 -50 -51 -51 -52 -53 -61 -63 -80 -88 -83 -77 -75 -76 -76 -69 -61 -55 -49 -44 -40 -33 -29 -25 -20 -18 -9 -7 0 4 7 13 15 19 23 27 31 37 38 45 50 52 56 66 72 83 95 104 107 128 135 143 159 170 176 191 199 214 219 230 229 238 248 253 254 253 263 275 282 292 292 302 304 314 326 340 346 359 364 375 381 385 393 403 412 414 422 433 434 448 450 456 466 471 479 487 499 506 514 521 524 535 541 547 552 562 572 577 582 588 596 600 611 618 621 623 631 637 643 649 659 668 673 683 687 692 704 712 714 729 732 744 751 762 764 772 781 787 790 793 797 808 816 824 842 842 843 845 861 874 883 893 894 899 906 910 922 930 942 948 960 975 981 986 1001 1021 1039 1062 1085 1115 1134 1143 1166 1184 1202 1220 1219 1240 1264 1274 1291 1311 1313 1309 1323 1335 1341 1335 1343 1362 1357 1369 1380 1391 1401 1414 1415 1422 1426 1430 1429 1428 1427 1421 1416 1417 1416 1422 1430 1434 1433 1425 1420 1418 1416 1411 1404 1401 1404 1403 1402 1399 1400 1401 1401 1396 1397 1395 1394 1393 1390 1388 1389 1384 1381 1382 1384 1386 1384 1383 1384 1384 1384 1382 1379 1380 1380 1381 1382 1383 1383 1382 1381 1380 1376 1373 1370 1365 1362 1358 1355 1353 1351 1348 1346 1346 1346 1345 1344 1341 1339 1335 1334 1335 1336 1339 1339 1340 1339 1338 1339 1343 1346 1348 1349 1348 1348 1346 1345 1346 1345 1346 1345 1346 1346 1345 1344 1344 1345 1346 1347 1350 1352 1355 1357 1359 1360 1362 1364 1365 1368 1371 1373 1377 1380 1384 1387 1391 1395 1399 1402 1406 1409 1414 1417 1421 1424 1427 1430 1433 1435 1437 1440 1443 1445 1448 1450 1454 1459 1462 1467 1470 1474 1475 1474 1472 1475 1479 1482 1481 1481 1480 1481 1481 1481 1480 1478 1478 1478 1476 1474 1472 1470
4 5 5 4 5 4 5 5 5 4 3 3 4 3 3 3 4 2 1 0 1 2 1 0 0 0 -1 -3 -4 -6 -7 -9 -11 -10 -10 -11 -12 -11 -11 -11 -11 -12 -11 -10 -9 -8 -6 -6 -4 -6 -5 -1 1 1 3 5 6 7 9 11 15 16 18 19 20 21 19 18 20 23 23 22 19 16 15 16 16 15 14 14 13 13 13 10 9 9 8 7 7 6 5 3 0 0 0 -1 -1 -1 0 -1 -1 -2 -3 -4 -4 -3 -4 -3 -3 -3 -5 -6 -6 -9 -10 -11 -13 -14 -16 -17 -19 -19 -21 -22 -24 -27 -30 -32 -33 -35 -35 -36 -36 -37 -37 -40 -42 -42 -42 -43 -44 -45 -45 -46 -47 -48 -49 -50 -51 -52 -53 -54 -54 -54 -54 -54 -54 -56 -57 -65 -67 -83 -92 -87 -81 -80 -81 -81 -74 -67 -60 -55 -50 -46 -39 -35 -31 -26 -24 -15 -13 -6 -1 1 7 9 13 16 20 24 30 31 38 43 45 49 59 65 76 88 98 100 121 128 136 152 163 169 185 193 208 214 225 224 233 243 249 249 248 259 271 278 288 288 298 301 311 323 337 342 356 361 372 378 383 391 400 409 412 420 430 432 445 448 453 464 469 476 485 497 504 512 519 522 532 538 544 549 559 569 574 579 586 593 597 608 615 618 621 628 634 641 646 656 665 671 681 685 690 701 709 711 726 729 742 749 760 761 768 778 783 786 790 793 805 812 820 838 838 839 840 857 869 878 888 889 893 900 905 916 925 937 943 955 970 976 981 996 1016 1035 1057 1080 1111 1129 1139 1162 1180 1198 1215 1214 1235 1258 1269 1284 1304 1305 1301 1315 1327 1333 1327 1336 1355 1350 1362 1373 1385 1394 1407 1408 1415 1419 1423 1422 1421 1420 1414 1409 1410 1409 1415 1423 1427 1427 1418 1413 1411 1410 1405 1398 1395 1398 1397 1396 1393 1394 1395 1395 1391 1392 1390 1389 1388 1386 1383 1385 1379 1376 1377 1380 1381 1380 1379 1379 1380 1380 1378 1375 1375 1376 1377 1378 1379 1379 1378 1377 1376 1373 1369 1366 1362 1358 1355 1352 1350 1348 1345 1343 1343 1343 1342 1341 1338 1336 1333 1332 1333 1333 1336 1337 1337 1336 1336 1336 1340 1343 1345 1346 1345 1345 1344 1343 1344 1344 1344 1343 1344 1344 1344 1343 1343 1344 1345 1346 1349 1351 1354 1356 1358 1360 1361 1363 1365 1367 1370 1373 1376 1379 1384 1387 1391 1394 1399 1402 1405 1409 1414 1417 1421 1424 1427 1430 1433 1435 1437 1440 1443 1445 1448 1450 1453 1458 1462 1466 1470 1473 1474 1473 1471 1474 1478 1480 1480 1480 1479 1479 1480 1479 1478 1476 1477 1476 1475 1472 1470 1468
4 5 6 5 5 5 5 5 6 5 4 4 4 3 4 3 5 3 1 1 2 2 1 1 1 0 -1 -2 -3 -5 -7 -9 -10 -10 -10 -11 -11 -10 -11 -11 -11 -12 -10 -10 -9 -7 -6 -6 -4 -6 -5 -1 1 1 3 5 6 7 9 11 15 16 18 19 20 21 19 19 21 23 23 22 19 16 16 16 16 15 15 14 13 14 13 11 10 9 8 8 8 7 6 3 1 0 1 0 -1 0 0 0 -1 -1 -3 -4 -3 -2 -3 -3 -2 -2 -4 -5 -6 -8 -9 -10 -12 -13 -15 -16 -18 -19 -20 -21 -23 -27 -29 -31 -33 -34 -35 -35 -36 -36 -37 -39 -41 -41 -41 -42 -43 -44 -45 -45 -47 -48 -49 -50 -51 -52 -52 -53 -53 -53 -53 -54 -54 -56 -56 -64 -66 -82 -91 -86 -81 -79 -81 -81 -74 -67 -61 -55 -50 -46 -39 -36 -31 -26 -24 -15 -13 -7 -1 0 6 8 12 15 19 23 29 30 37 42 44 48 58 64 74 86 95 98 119 125 133 149 161 167 182 190 206 211 222 221 230 240 246 247 246 256 268 276 286 285 296 298 308 320 334 340 353 358 368 375 379 387 397 406 408 416 426 428 442 444 450 460 465 472 481 492 499 507 514 517 527 533 539 545 554 565 569 574 581 588 593 604 611 614 616 624 630 637 643 652 661 667 677 682 687 698 706 709 723 727 739 746 757 759 766 776 781 784 788 792 803 811 818 836 836 837 839 855 867 876 886 887 891 899 904 915 924 936 942 955 970 976 981 996 1016 1035 1057 1080 1111 1130 1139 1162 1181 1198 1215 1214 1235 1258 1267 1282 1302 1302 1297 1311 1323 1330 1324 1332 1352 1347 1358 1370 1381 1390 1403 1405 1410 1415 1419 1417 1416 1415 1409 1404 1405 1404 1410 1418 1422 1421 1413 1408 1406 1405 1399 1392 1389 1392 1391 1390 1387 1388 1389 1389 1385 1386 1383 1383 1382 1380 1378 1379 1373 1371 1371 1374 1375 1374 1373 1373 1374 1373 1372 1369 1369 1370 1371 1372 1373 1373 1372 1371 1370 1367 1364 1361 1357 1353 1350 1347 1346 1344 1340 1339 1339 1339 1338 1337 1334 1332 1329 1328 1329 1330 1332 1333 1333 1332 1332 1333 1336 1340 1342 1343 1342 1342 1341 1340 1341 1341 1342 1341 1342 1342 1342 1342 1342 1342 1343 1345 1347 1350 1353 1356 1358 1359 1361 1363 1364 1367 1370 1373 1376 1379 1384 1387 1391 1394 1399 1402 1405 1409 1414 1417 1421 1424 1427 1430 1433 1435 1437 1440 1443 1445 1448 1450 1453 1458 1461 1466 1469 1472 1473 1472 1470 1473 1477 1479 1479 1479 1478 1478 1478 1478 1476 1475 1475 1474 1473 1470 1468 1465
5 6 6 5 6 5 6 6 6 6 4 4 5 4 4 4 5 3 2 2 3 3 2 1 1 0 0 -2 -3 -5 -6 -9 -10 -10 -10 -10 -11 -10 -11 -11 -11 -12 -10 -10 -9 -8 -6 -6 -5 -6 -6 -2 1 0 2 4 6 6 8 11 14 16 18 19 20 21 19 18 20 23 23 21 19 16 15 16 16 15 14 14 13 14 13 11 10 9 9 9 8 8 7 4 1 1 2 0 0 0 0 0 0 -1 -2 -3 -3 -2 -3 -2 -1 -1 -3 -4 -5 -7 -8 -9 -11 -12 -14 -15 -17 -18 -19 -20 -22 -26 -28 -31 -32 -33 -34 -35 -36 -36 -36 -39 -41 -41 -42 -42 -44 -45 -45 -46 -48 -49 -50 -51 -52 -53 -54 -55 -55 -55 -55 -56 -56 -58 -59 -66 -68 -84 -92 -88 -83 -82 -84 -84 -77 -70 -64 -58 -53 -49 -43 -39 -35 -30 -28 -19 -17 -11 -5 -3 2 4 8 11 16 20 26 27 33 39 40 44 54 60 71 83 92 94 115 121 130 145 157 164 179 187 203 209 220 219 229 239 245 245 245 255 267 275 285 285 295 298 308 320 334 339 352 358 368 375 379 387 397 406 408 416 427 429 442 444 450 461 465 472 481 492 498 507 514 516 526 532 538 543 553 563 567 573 579 586 590 601 608 611 614 621 627 634 640 649 658 664 674 678 683 694 702 704 718 722 734 741 752 754 761 771 775 778 782 785 796 804 811 829 828 829 831 848 860 868 878 878 883 890 895 907 915 927 934 946 962 967 972 988 1008 1026 1049 1073 1103 1122 1131 1155 1173 1191 1208 1207 1227 1250 1259 1273 1292 1292 1287 1300 1313 1320 1315 1323 1343 1339 1350 1362 1373 1383 1395 1397 1403 1407 1411 1410 1409 1408 1402 1398 1399 1398 1404 1412 1416 1415 1408 1403 1401 1399 1394 1387 1385 1388 1386 1385 1383 1384 1385 1385 1381 1382 1380 1379 1380 1377 1375 1377 1371 1368 1369 1372 1373 1372 1371 1371 1371 1371 1370 1367 1367 1368 1368 1370 1371 1371 1370 1369 1368 1364 1361 1358 1354 1351 1347 1345 1343 1341 1338 1337 1337 1337 1336 1334 1331 1329 1326 1325 1326 1327 1329 1329 1330 1329 1329 1329 1333 1336 1338 1339 1339 1339 1337 1337 1338 1338 1339 1338 1339 1339 1339 1339 1340 1340 1341 1343 1345 1348 1351 1354 1356 1357 1359 1361 1363 1365 1368 1371 1375 1378 1383 1386 1390 1393 1398 1401 1405 1409 1413 1416 1420 1423 1426 1429 1432 1434 1437 1440 1442 1445 1447 1450 1453 1458 1461 1465 1468 1472 1473 1471 1469 1472 1476 1478 1478 1478 1477 1477 1477 1477 1475 1473 1473 1472 1471 1468 1466 1464
5 6 6 5 6 5 6 6 6 6 4 5 5 4 5 4 6 4 3 2 3 4 2 2 2 1 0 -1 -2 -4 -6 -8 -10 -9 -9 -10 -10 -9 -10 -11 -11 -12 -10 -10 -9 -7 -6 -6 -5 -6 -6 -2 1 0 2 4 6 6 8 11 14 16 18 19 20 21 18 18 20 22 22 21 18 15 15 15 16 14 14 13 12 13 13 10 9 9 8 8 8 7 6 3 1 0 1 0 0 0 0 0 -1 -1 -3 -4 -3 -2 -3 -2 -2 -2 -4 -4 -5 -7 -8 -9 -11 -11 -14 -15 -17 -17 -19 -19 -22 -25 -28 -30 -32 -33 -34 -34 -35 -35 -35 -38 -40 -40 -40 -41 -42 -44 -44 -44 -46 -47 -48 -49 -50 -52 -52 -53 -53 -53 -53 -54 -54 -56 -56 -63 -65 -81 -89 -85 -80 -79 -81 -81 -75 -68 -62 -56 -51 -47 -41 -37 -33 -28 -26 -17 -15 -9 -3 -1 4 6 10 13 17 21 27 28 35 40 41 46 56 62 72 83 92 95 115 121 130 146 158 164 179 188 204 210 220 220 229 239 245 246 245 256 268 275 285 285 296 298 308 320 334 339 352 358 368 375 379 386 396 405 407 415 425 427 440 442 448 458 462 470 478 489 495 503 510 513 522 528 533 539 548 558 562 567 573 580 584 595 602 604 607 614 620 626 632 641 650 656 666 670 675 686 693 695 709 712 725 732 742 744 750 760 764 767 770 774 784 792 799 816 815 816 817 834 846 854 863 863 868 875 880 892 900 912 919 931 947 952 957 973 993 1011 1034 1058 1088 1108 1117 1140 1158 1176 1193 1192 1212 1234 1243 1257 1275 1274 1269 1282 1296 1303 1298 1307 1327 1323 1334 1347 1358 1367 1380 1382 1388 1393 1397 1395 1394 1394 1389 1385 1386 1385 1392 1400 1404 1404 1396 1392 1390 1389 1384 1377 1375 1378 1377 1376 1374 1375 1377 1377 1374 1375 1373 1373 1373 1371 1370 1371 1366 1363 1364 1367 1368 1367 1367 1367 1367 1367 1366 1363 1363 1364 1365 1367 1367 1368 1367 1366 1364 1361 1359 1356 1351 1348 1345 1343 1341 1339 1336 1335 1334 1334 1333 1332 1329 1327 1324 1323 1324 1324 1327 1327 1327 1326 1326 1326 1330 1333 1335 1336 1335 1336 1334 1334 1335 1335 1336 1335 1336 1337 1336 1336 1337 1338 1338 1340 1343 1346 1349 1351 1353 1355 1357 1359 1360 1363 1366 1369 1373 1376 1381 1384 1387 1391 1396 1399 1403 1407 1411 1415 1418 1421 1424 1427 1430 1433 1436 1438 1441 1444 1446 1449 1452 1456 1460 1464 1467 1470 1471 1469 1468 1470 1474 1477 1476 1476 1475 1475 1475 1475 1473 1472 1471 1470 1469 1466 1464 1461
5 6 6 5 6 6 6 6 7 6 5 5 5 5 5 5 6 4 3 3 4 4 3 2 2 1 0 -1 -2 -4 -6 -8 -10 -10 -10 -10 -11 -10 -11 -11 -12 -12 -11 -11 -10 -9 -7 -7 -6 -8 -7 -3 0 0 1 2 4 4 7 9 13 14 16 18 19 19 17 17 19 21 21 20 17 14 13 14 15 14 13 13 11 12 12 10 9 9 8 8 8 8 6 4 1 1 2 0 0 0 0 0 0 -1 -2 -3 -2 -1 -2 -1 -1 0 -3 -3 -3 -6 -7 -7 -9 -10 -13 -14 -16 -16 -18 -18 -21 -24 -27 -30 -31 -33 -34 -35 -35 -36 -36 -39 -41 -41 -41 -42 -44 -45 -45 -46 -48 -49 -50 -52 -53 -54 -55 -56 -56 -56 -56 -57 -58 -59 -60 -67 -68 -83 -92 -88 -84 -83 -85 -86 -80 -72 -66 -60 -56 -52 -45 -42 -37 -33 -31 -22 -20 -13 -8 -5 0 2 5 9 13 17 23 24 31 36 38 42 52 58 68 80 89 91 112 118 127 143 155 162 177 185 202 208 219 219 228 239 245 246 245 256 268 276 286 286 296 299 309 321 335 340 353 358 368 375 379 387 396 405 407 415 425 427 440 442 447 458 461 468 476 487 493 500 507 509 519 524 529 534 543 552 556 561 566 573 577 588 594 596 598 606 611 617 622 631 640 645 655 659 663 673 681 682 696 699 711 718 728 729 735 744 748 751 754 757 768 774 781 799 797 798 799 816 827 835 844 844 848 856 861 873 882 893 900 912 928 934 939 955 975 994 1017 1041 1071 1091 1100 1124 1142 1160 1177 1176 1196 1218 1227 1240 1258 1257 1251 1265 1280 1287 1283 1292 1313 1309 1321 1334 1346 1355 1368 1370 1376 1381 1386 1385 1384 1384 1379 1376 1378 1377 1383 1391 1396 1396 1389 1385 1384 1383 1378 1371 1369 1373 1372 1371 1369 1371 1372 1373 1370 1371 1369 1369 1370 1368 1367 1368 1363 1360 1361 1364 1366 1364 1364 1364 1364 1364 1362 1359 1360 1360 1361 1363 1364 1364 1363 1362 1361 1357 1355 1352 1347 1344 1341 1339 1337 1335 1332 1330 1330 1330 1329 1327 1325 1322 1319 1318 1319 1319 1321 1321 1322 1321 1320 1321 1324 1327 1329 1330 1330 1330 1329 1328 1330 1330 1330 1330 1331 1332 1332 1332 1333 1333 1334 1336 1339 1342 1345 1348 1350 1352 1354 1356 1357 1360 1363 1366 1370 1373 1378 1382 1385 1390 1394 1397 1401 1405 1410 1413 1417 1420 1423 1426 1429 1432 1435 1437 1440 1443 1445 1448 1451 1455 1458 1463 1466 1469 1470 1468 1466 1469 1473 1475 1474 1474 1473 1473 1474 1473 1471 1469 1469 1468 1466 1464 1461 1458
4 5 6 5 6 5 6 6 6 6 5 5 6 5 5 5 7 5 4 3 4 5 3 3 3 2 0 0 -1 -3 -5 -7 -9 -9 -9 -9 -10 -9 -10 -10 -11 -12 -11 -10 -10 -8 -7 -7 -6 -8 -7 -3 0 -1 0 2 3 4 6 9 12 13 16 17 18 18 16 15 17 19 19 18 15 12 12 13 13 12 11 11 9 10 10 8 7 7 6 7 6 6 5 2 0 0 1 0 -1 -1 0 -1 -2 -2 -3 -4 -4 -2 -3 -2 -1 -1 -3 -3 -3 -5 -7 -7 -9 -10 -12 -13 -15 -15 -17 -17 -20 -23 -26 -28 -30 -31 -32 -33 -34 -34 -34 -37 -39 -40 -40 -41 -42 -43 -44 -44 -46 -48 -49 -50 -51 -53 -53 -55 -55 -55 -56 -56 -57 -58 -59 -66 -67 -82 -91 -87 -83 -83 -86 -86 -80 -73 -67 -61 -57 -54 -47 -44 -40 -35 -33 -25 -23 -16 -11 -8 -2 0 2 5 9 13 19 20 26 32 33 38 48 54 63 75 84 86 106 112 121 137 150 156 171 180 197 204 214 214 224 235 241 242 241 252 264 272 282 282 293 296 306 318 332 337 350 356 366 373 377 385 394 403 405 413 423 425 438 440 446 456 460 467 475 485 491 498 505 507 516 522 526 531 540 549 553 557 563 570 573 584 590 592 594 601 606 612 617 625 634 639 648 652 656 666 672 674 687 689 701 707 717 718 724 732 736 738 741 743 753 759 766 783 781 781 782 798 809 816 825 824 828 836 841 852 861 872 878 891 906 912 917 932 952 971 994 1018 1049 1069 1077 1101 1119 1137 1153 1153 1173 1194 1202 1215 1233 1232 1226 1240 1255 1263 1259 1269 1290 1287 1299 1312 1324 1334 1347 1350 1356 1362 1367 1366 1365 1366 1362 1359 1362 1361 1368 1377 1382 1383 1376 1373 1372 1371 1367 1361 1359 1364 1364 1363 1362 1364 1366 1367 1364 1366 1365 1365 1367 1366 1364 1367 1361 1359 1360 1364 1365 1364 1364 1364 1365 1365 1363 1361 1361 1362 1363 1365 1366 1366 1365 1364 1362 1359 1357 1353 1349 1346 1343 1341 1339 1337 1334 1332 1332 1332 1330 1328 1325 1323 1319 1318 1319 1319 1321 1320 1321 1319 1319 1319 1322 1325 1327 1327 1327 1327 1326 1325 1327 1326 1327 1326 1327 1328 1328 1328 1329 1330 1330 1332 1335 1338 1341 1343 1345 1347 1349 1352 1353 1356 1359 1362 1366 1369 1374 1377 1381 1385 1390 1393 1397 1401 1406 1409 1413 1416 1419 1422 1426 1429 1431 1434 1437 1440 1443 1445 1448 1453 1456 1460 1463 1466 1467 1466 1464 1467 1470 1473 1472 1472 1471 1471 1471 1471 1469 1467 1467 1466 1464 1461 1459 1456
5 6 7 6 6 6 7 7 7 7 6 6 7 6 6 6 7 6 4 4 5 6 4 3 3 2 1 0 -1 -3 -5 -7 -9 -9 -9 -10 -11 -10 -11 -11 -12 -13 -12 -12 -11 -10 -9 -8 -8 -10 -9 -6 -2 -3 -1 0 1 1 3 6 10 11 13 14 15 16 14 13 15 17 17 16 13 10 10 11 12 10 9 9 8 9 9 7 6 6 6 6 6 6 5 2 0 0 1 0 0 0 0 0 -1 -1 -2 -3 -3 -1 -2 -1 0 0 -1 -2 -2 -4 -5 -5 -7 -8 -11 -12 -13 -14 -15 -16 -18 -22 -25 -27 -29 -31 -32 -33 -34 -34 -35 -38 -40 -40 -41 -42 -43 -44 -45 -46 -48 -49 -51 -53 -54 -56 -56 -58 -58 -59 -59 -60 -61 -62 -64 -70 -71 -86 -95 -92 -88 -88 -91 -92 -86 -79 -73 -67 -63 -60 -53 -50 -46 -41 -40 -31 -29 -22 -17 -14 -8 -6 -3 0 4 7 14 15 21 27 28 33 43 49 59 70 79 81 102 108 117 133 146 153 168 177 194 201 212 212 222 233 240 241 241 251 264 272 282 282 293 296 306 317 332 337 349 355 365 372 376 383 392 401 403 411 420 422 435 437 442 452 455 462 469 479 484 491 497 499 508 512 517 521 529 537 540 545 550 556 559 569 575 576 578 584 589 594 599 607 614 619 628 632 635 644 650 651 664 666 677 683 693 693 699 707 710 712 714 717 726 732 739 755 753 753 754 771 782 789 797 796 801 808 814 825 834 846 853 865 881 888 893 909 929 948 972 996 1027 1048 1057 1081 1100 1118 1135 1135 1155 1177 1185 1198 1216 1215 1209 1223 1239 1248 1246 1256 1278 1275 1288 1302 1315 1325 1339 1342 1349 1355 1360 1360 1360 1361 1358 1356 1359 1359 1366 1374 1380 1382 1375 1373 1372 1372 1368 1362 1360 1365 1365 1365 1363 1365 1367 1368 1366 1368 1367 1368 1369 1368 1367 1369 1363 1361 1362 1365 1367 1365 1365 1365 1365 1365 1363 1360 1360 1361 1361 1363 1364 1364 1362 1361 1359 1356 1353 1350 1345 1342 1339 1336 1334 1332 1329 1327 1326 1326 1324 1322 1319 1316 1313 1311 1312 1312 1313 1313 1313 1311 1311 1311 1314 1317 1319 1319 1319 1319 1318 1318 1319 1319 1319 1319 1320 1321 1321 1322 1323 1324 1325 1326 1329 1332 1336 1338 1341 1343 1346 1348 1349 1352 1356 1359 1363 1366 1372 1375 1379 1384 1388 1392 1396 1400 1405 1409 1412 1416 1419 1422 1425 1428 1431 1435 1438 1440 1443 1445 1448 1453 1456 1460 1463 1466 1467 1465 1464 1466 1470 1472 1471 1471 1470 1470 1470 1469 1467 1465 1465 1463 1461 1459 1456 1453
6 7 8 7 7 7 8 8 8 8 7 7 7 7 7 7 8 7 5 5 6 6 4 4 4 3 1 0 -1 -3 -5 -8 -10 -10 -10 -11 -11 -11 -11 -12 -13 -14 -13 -13 -13 -11 -10 -10 -10 -12 -11 -8 -4 -5 -3 -1 0 0 1 4 8 9 11 12 14 14 12 11 13 15 15 14 11 8 8 10 11 9 8 8 7 8 8 6 5 6 6 6 7 6 6 3 1 1 2 0 0 0 1 0 0 0 -1 -2 -1 0 0 0 1 1 0 0 0 -2 -3 -3 -5 -6 -9 -10 -12 -12 -14 -14 -17 -21 -24 -26 -28 -30 -31 -32 -33 -34 -34 -37 -39 -40 -41 -42 -43 -45 -45 -46 -48 -50 -52 -54 -55 -57 -58 -59 -60 -60 -61 -62 -62 -64 -65 -71 -73 -87 -96 -93 -89 -89 -92 -93 -88 -81 -75 -69 -65 -61 -55 -52 -48 -43 -42 -33 -30 -24 -18 -16 -9 -7 -4 -1 3 7 14 15 21 27 28 34 44 50 59 71 79 82 102 108 118 134 147 154 169 178 196 203 214 214 224 235 241 243 243 253 265 273 283 283 294 297 307 318 332 337 350 355 365 371 375 382 391 399 401 408 417 419 431 433 438 447 450 456 462 471 476 483 488 490 498 502 506 510 517 525 527 532 536 542 544 554 559 560 561 567 572 576 581 588 596 600 609 613 616 624 630 630 643 645 656 662 671 671 676 684 687 689 692 694 703 709 716 732 730 731 732 748 759 766 775 774 779 786 793 805 814 826 833 846 863 869 875 891 912 932 956 980 1012 1033 1043 1068 1087 1105 1122 1123 1143 1165 1173 1186 1204 1203 1197 1212 1228 1238 1237 1248 1270 1268 1281 1296 1309 1320 1334 1337 1344 1350 1356 1356 1356 1358 1354 1353 1356 1356 1364 1372 1378 1380 1374 1372 1371 1371 1367 1361 1359 1364 1364 1364 1363 1365 1366 1367 1365 1367 1366 1367 1368 1367 1366 1367 1362 1360 1360 1363 1364 1363 1362 1362 1361 1361 1359 1356 1356 1356 1356 1358 1358 1358 1357 1355 1353 1349 1347 1343 1339 1335 1332 1329 1327 1325 1321 1320 1319 1319 1317 1315 1311 1308 1305 1304 1304 1304 1305 1305 1305 1303 1303 1303 1306 1309 1311 1311 1311 1312 1311 1311 1313 1313 1313 1313 1314 1316 1316 1317 1318 1319 1320 1323 1325 1329 1332 1335 1338 1340 1343 1346 1347 1350 1354 1358 1362 1365 1371 1374 1378 1383 1388 1392 1396 1400 1405 1409 1412 1416 1419 1422 1426 1429 1432 1435 1438 1441 1443 1446 1448 1453 1456 1460 1462 1465 1466 1464 1463 1465 1468 1471 1470 1469 1468 1468 1468 1467 1465 1462 1462 1460 1458 1455 1452 1449
6 7 7 6 7 7 7 8 8 7 6 7 7 6 7 7 8 7 5 5 6 6 4 4 4 2 1 0 -1 -4 -5 -8 -10 -10 -10 -11 -12 -11 -12 -12 -13 -14 -14 -14 -13 -12 -11 -11 -10 -12 -12 -8 -5 -6 -4 -2 -1 -1 1 3 7 8 10 12 13 14 11 10 12 14 14 13 10 7 7 9 10 8 7 7 6 7 8 5 5 5 5 6 6 6 5 3 1 1 2 0 0 0 1 0 0 0 -1 -2 -1 0 -1 0 1 1 0 0 0 -2 -3 -3 -5 -6 -9 -10 -12 -12 -14 -14 -17 -21 -24 -26 -28 -30 -31 -32 -33 -34 -34 -38 -40 -40 -41 -42 -44 -45 -46 -47 -49 -51 -52 -54 -56 -58 -58 -60 -60 -61 -62 -63 -63 -65 -66 -71 -73 -87 -96 -93 -90 -90 -93 -94 -89 -82 -76 -70 -66 -63 -56 -53 -49 -45 -43 -35 -32 -26 -20 -17 -11 -9 -6 -3 1 5 11 13 19 25 26 31 41 47 56 68 76 79 99 105 114 130 143 150 165 174 192 199 210 210 221 231 238 239 239 250 261 269 279 279 290 293 303 314 327 332 344 350 359 365 369 376 384 393 394 401 410 412 424 425 430 439 441 447 454 462 467 473 478 480 487 491 495 498 505 513 515 519 523 529 531 540 545 546 547 553 557 562 566 574 581 585 593 597 600 608 614 614 626 628 639 645 653 654 659 667 669 671 674 676 685 691 697 714 711 712 713 730 740 747 755 755 759 767 774 786 795 807 815 828 844 851 857 874 895 915 939 963 995 1017 1027 1051 1071 1089 1106 1107 1127 1149 1157 1169 1186 1185 1180 1194 1212 1222 1221 1233 1255 1254 1267 1282 1296 1307 1320 1324 1331 1338 1344 1344 1344 1346 1343 1343 1346 1346 1354 1362 1369 1371 1365 1363 1363 1363 1359 1353 1352 1357 1357 1357 1356 1358 1360 1361 1360 1362 1361 1362 1363 1362 1361 1363 1358 1356 1356 1359 1360 1359 1358 1358 1357 1357 1355 1352 1352 1352 1352 1354 1354 1354 1352 1351 1349 1345 1342 1339 1334 1331 1328 1325 1323 1321 1318 1316 1315 1315 1313 1310 1307 1304 1301 1299 1300 1299 1301 1300 1300 1298 1298 1298 1301 1304 1306 1306 1306 1307 1306 1306 1308 1308 1308 1308 1309 1311 1311 1313 1314 1315 1316 1318 1321 1325 1328 1331 1334 1337 1340 1342 1344 1347 1351 1354 1358 1362 1367 1371 1375 1380 1385 1389 1393 1397 1402 1406 1410 1413 1416 1420 1423 1426 1429 1433 1436 1438 1441 1443 1446 1451 1453 1457 1460 1462 1463 1461 1460 1462 1465 1468 1466 1466 1465 1464 1464 1463 1461 1459 1458 1456 1454 1451 1447 1445
5 6 7 6 7 6 7 7 7 7 6 6 7 6 7 6 8 6 5 4 5 6 4 3 3 2 0 -1 -2 -4 -6 -8 -10 -10 -10 -11 -12 -11 -12 -13 -14 -15 -14 -14 -14 -12 -11 -11 -11 -13 -12 -9 -6 -6 -4 -3 -2 -2 0 3 6 8 10 11 12 13 10 10 12 14 13 13 10 7 6 8 9 8 7 7 5 7 7 5 4 5 5 6 6 6 5 3 1 0 2 0 0 0 0 0 0 0 -1 -3 -2 -1 -1 0 1 1 0 0 0 -2 -3 -3 -5 -6 -9 -11 -12 -13 -14 -14 -17 -21 -24 -27 -29 -31 -32 -33 -34 -35 -35 -38 -40 -41 -42 -43 -45 -46 -47 -47 -50 -52 -53 -55 -56 -58 -59 -61 -61 -62 -62 -63 -64 -66 -67 -71 -73 -87 -96 -93 -90 -90 -94 -95 -90 -83 -77 -71 -68 -64 -58 -55 -51 -46 -45 -36 -34 -28 -22 -19 -13 -11 -8 -5 -1 2 9 10 16 22 23 28 38 44 53 64 72 74 94 100 109 125 139 146 160 169 187 194 205 205 216 226 233 234 234 244 256 264 273 273 284 287 296 307 321 326 337 343 352 358 361 368 376 385 386 393 402 403 415 417 421 430 432 438 444 453 457 463 468 470 477 481 484 488 494 502 504 508 512 518 520 529 534 535 536 542 546 551 555 562 569 574 582 586 589 596 602 603 614 617 627 633 642 642 647 655 657 659 662 664 673 678 685 701 699 699 700 717 728 734 742 741 746 754 761 773 783 794 802 815 832 839 845 861 882 902 926 951 982 1004 1014 1039 1058 1076 1093 1093 1113 1135 1142 1154 1171 1169 1163 1178 1196 1206 1206 1217 1240 1239 1252 1267 1281 1292 1305 1309 1316 1323 1329 1329 1329 1331 1329 1328 1332 1332 1340 1348 1355 1357 1351 1350 1349 1349 1346 1340 1339 1344 1345 1345 1344 1346 1348 1349 1348 1350 1349 1350 1352 1352 1351 1353 1348 1346 1346 1349 1350 1349 1348 1348 1348 1347 1346 1343 1343 1343 1344 1345 1346 1346 1344 1342 1340 1337 1335 1331 1327 1324 1321 1318 1317 1315 1311 1310 1309 1309 1307 1305 1301 1298 1295 1294 1294 1294 1295 1294 1294 1293 1293 1292 1295 1298 1300 1301 1301 1302 1301 1301 1303 1303 1304 1303 1305 1307 1308 1309 1311 1312 1313 1315 1318 1322 1325 1328 1331 1333 1337 1339 1340 1344 1348 1351 1355 1359 1364 1368 1372 1377 1382 1386 1390 1394 1399 1403 1406 1410 1413 1416 1420 1423 1426 1429 1432 1435 1437 1440 1442 1447 1449 1453 1456 1458 1459 1457 1455 1457 1461 1463 1462 1461 1460 1460 1459 1458 1456 1453 1453 1451 1449 1445 1442 1439
4 5 6 5 6 6 6 7 7 7 6 6 7 6 7 7 8 6 5 5 6 6 4 4 4 3 1 0 -1 -3 -5 -8 -10 -10 -10 -11 -11 -10 -11 -12 -13 -14 -14 -14 -13 -12 -11 -11 -11 -13 -12 -9 -6 -7 -5 -4 -2 -3 0 2 5 7 9 10 11 12 9 8 10 12 12 11 8 5 5 7 8 6 5 5 4 5 5 3 2 3 3 4 4 4 3 1 0 0 0 0 -1 0 0 -1 -1 -1 -3 -4 -3 -2 -2 0 0 0 -1 -1 0 -2 -3 -2 -5 -6 -9 -10 -12 -12 -13 -13 -16 -20 -23 -26 -28 -30 -31 -32 -33 -33 -34 -37 -39 -40 -40 -41 -43 -44 -45 -46 -48 -50 -52 -54 -55 -57 -58 -60 -60 -61 -62 -62 -63 -65 -66 -70 -72 -85 -94 -92 -89 -90 -94 -95 -90 -84 -78 -73 -69 -66 -60 -57 -53 -49 -48 -40 -37 -31 -26 -23 -17 -16 -13 -10 -6 -2 4 5 10 16 17 23 32 38 47 57 65 67 87 92 102 118 131 138 153 162 180 187 198 198 209 219 226 227 227 238 250 258 267 268 278 281 291 302 315 320 332 337 347 353 356 363 372 380 381 389 397 399 411 412 417 426 428 434 440 448 453 459 464 466 473 477 480 483 490 497 499 504 508 513 515 524 529 530 531 536 540 545 549 556 563 567 575 579 582 588 594 594 606 607 618 623 631 631 636 643 645 647 649 651 659 664 670 686 683 683 684 700 710 716 724 723 727 735 741 753 762 773 781 794 810 817 823 839 860 879 903 927 959 981 990 1015 1033 1052 1068 1068 1088 1109 1116 1127 1143 1142 1135 1150 1168 1179 1179 1191 1214 1213 1227 1242 1256 1267 1281 1285 1292 1299 1306 1306 1306 1309 1307 1308 1311 1312 1320 1329 1336 1339 1334 1333 1333 1334 1330 1325 1325 1330 1331 1332 1332 1335 1337 1339 1338 1341 1340 1342 1345 1345 1344 1347 1342 1340 1341 1344 1346 1345 1345 1345 1345 1345 1343 1340 1341 1341 1342 1344 1344 1344 1343 1341 1340 1337 1334 1331 1327 1324 1321 1319 1317 1315 1312 1310 1309 1309 1307 1305 1302 1298 1295 1294 1294 1294 1295 1294 1293 1292 1292 1291 1294 1296 1298 1299 1299 1299 1299 1299 1301 1301 1301 1300 1302 1304 1304 1306 1307 1309 1309 1311 1314 1318 1321 1324 1327 1329 1333 1335 1336 1340 1344 1347 1351 1355 1360 1364 1368 1373 1378 1382 1386 1390 1394 1398 1402 1405 1408 1412 1415 1419 1422 1425 1428 1431 1433 1436 1438 1443 1445 1449 1451 1454 1454 1453 1451 1453 1456 1459 1458 1457 1456 1455 1455 1454 1452 1449 1448 1446 1444 1441 1438 1435
