ncols        516
nrows        43
xllcorner    288845
yllcorner    7524325
cellsize     1000.000000000000
0 0 0 0 0 0 0 0 0 0 0 0 0 0 0 0 0 0 0 0 0 0 0 0 0 0 0 0 0 0 0 0 0 0 0 0 0 0 0 0 0 0 0 0 0 0 0 0 0 0 0 0 0 0 0 0 0 0 0 0 0 0 0 0 0 0 0 0 0 0 0 0 0 0 0 0 0 0 0 0 0 0 0 0 0 0 0 0 0 0 0 0 0 0 0 0 0 0 0 0 0 0 0 0 0 0 0 0 0 0 0 0 0 0 0 0 0 0 0 0 0 0 0 0 0 0 16 23 29 35 42 45 51 57 61 65 73 76 79 83 91 94 98 106 110 115 117 125 132 136 140 147 152 154 157 166 170 177 188 198 210 220 236 248 261 276 289 309 321 335 346 353 365 377 392 399 412 425 445 447 458 476 489 505 523 542 554 573 585 600 618 628 651 653 668 674 686 701 711 721 735 743 753 774 786 798 811 820 832 847 864 874 886 901 913 923 933 945 954 952 961 971 985 998 1002 1015 1024 1029 1037 1043 1056 1061 1072 1075 1085 1094 1103 1111 1117 1123 1135 1146 1153 1160 1165 1178 1175 1180 1184 1187 1186 1195 1201 1195 1197 1195 1183 1166 1147 1131 1114 1091 1070 1047 1019 994 964 932 903 879 865 869 879 896 933 958 1042 1000 1013 1061 1063 1064 1172 1322 1221 1139 1120 1131 1126 1153 1204 1215 1194 1194 1204 1207 1213 1220 1225 1235 1252 1260 1275 1290 1305 1325 1340 1430 1369 1368 1383 1387 1364 1472 1387 1396 1419 1483 1396 1413 1426 1440 1497 1555 1383 1344 1338 1324 1313 1303 1300 1292 1294 1297 1301 1294 1280 1276 1278 1285 1331 1399 1421 1348 1349 1557 1549 1473 1481 1470 1585 1487 1358 1355 1364 1365 1369 1377 1382 1391 1400 1397 1382 1376 1371 1367 1370 1363 1352 1342 1333 1331 1347 1342 1342 1334 1337 1329 1327 1334 1348 1365 1375 1408 1419 1502 1505 1441 1449 1542 1465 1433 1394 1369 1388 1380 1376 1377 1368 1392 1376 1362 1355 1349 1345 1334 1329 1344 1341 1334 1367 1376 1375 1386 1359 1367 1360 1369 1397 1406 1424 1408 1441 1445 1453 1458 1477 1490 1497 1488 1498 1512 1596 1565 1547 1517 1507 1520 1535 1551 1525 1526 1531 1538 1555 1574 1652 1617 1615 1599 1597 1601 1600 1586 1556 1542 1545 1546 1545 1556 1567 1581 1673 1777 1773 1819 1816 1811 1801 1779 1783 1776 1771 1762 1769 1760 1754 1762 1759 1751 1743 1752 1753 1741 1739 1732 1724 1718 1723 1724 1725 1717 1716 1714 1709 1706 1711 1702 1709 1711 1709 1708 1705 1713 1716 1711 1708 1696 1688 1690 1691 1683 1693 1688 1683 1689
0 0 0 0 0 0 0 0 0 0 0 0 0 0 0 0 0 0 0 0 0 0 0 0 0 0 0 0 0 0 0 0 0 0 0 0 0 0 0 0 0 0 0 0 0 0 0 0 0 0 0 0 0 0 0 0 0 0 0 0 0 0 0 0 0 0 0 0 0 0 0 0 0 0 0 0 0 0 0 0 0 0 0 0 0 0 0 0 0 0 0 0 0 0 0 0 0 0 0 0 0 0 0 0 0 0 0 0 0 0 0 0 0 0 0 0 0 0 0 0 0 0 0 0 0 0 0 23 26 32 33 41 47 53 56 62 68 74 81 83 88 91 95 102 106 104 111 119 124 132 134 140 146 150 154 157 166 174 190 197 211 221 230 246 258 273 292 308 317 325 340 347 361 371 386 393 408 421 433 448 459 483 488 501 532 535 564 574 575 593 601 645 638 650 658 669 682 692 704 716 725 742 756 769 782 798 802 817 834 849 864 876 886 898 913 920 933 941 943 951 956 969 981 997 1001 1011 1058 1026 1035 1050 1049 1062 1065 1075 1084 1089 1104 1106 1116 1123 1128 1134 1139 1146 1155 1163 1167 1174 1183 1177 1182 1184 1188 1201 1192 1188 1175 1159 1143 1124 1102 1080 1052 1031 1000 979 954 917 888 879 869 853 873 901 965 1005 1046 1037 1100 1285 1105 1101 1150 1344 1179 1128 1201 1124 1139 1154 1215 1225 1233 1204 1215 1217 1222 1226 1232 1238 1246 1260 1273 1287 1303 1317 1334 1350 1365 1414 1403 1405 1384 1395 1403 1599 1665 1440 1408 1412 1422 1438 1464 1566 1363 1336 1319 1311 1310 1294 1291 1285 1284 1287 1279 1275 1273 1264 1270 1331 1317 1318 1304 1312 1309 1313 1323 1338 1409 1400 1495 1363 1349 1352 1362 1360 1372 1380 1383 1393 1408 1413 1382 1371 1367 1359 1371 1363 1347 1326 1322 1329 1333 1336 1330 1320 1327 1322 1317 1315 1332 1343 1361 1375 1388 1397 1397 1395 1398 1392 1400 1429 1474 1385 1357 1383 1364 1360 1359 1376 1360 1351 1345 1343 1337 1332 1323 1331 1329 1326 1330 1386 1376 1387 1351 1346 1377 1386 1405 1400 1429 1408 1447 1461 1460 1463 1474 1499 1492 1500 1508 1529 1587 1569 1535 1528 1519 1540 1550 1552 1534 1542 1535 1539 1547 1555 1571 1596 1655 1609 1612 1618 1637 1611 1585 1546 1551 1542 1554 1560 1572 1575 1618 1737 1789 1832 1820 1808 1794 1786 1791 1779 1783 1768 1778 1771 1763 1767 1758 1746 1757 1754 1749 1744 1737 1724 1723 1725 1723 1734 1727 1723 1719 1714 1714 1703 1708 1715 1711 1720 1720 1709 1709 1715 1711 1699 1691 1696 1685 1678 1686 1679 1683 1684 1679 1676
0 0 0 0 0 0 0 0 0 0 0 0 0 0 0 0 0 0 0 0 0 0 0 0 0 0 0 0 0 0 0 0 0 0 0 0 0 0 0 0 0 0 0 0 0 0 0 0 0 0 0 0 0 0 0 0 0 0 0 0 0 0 0 0 0 0 0 0 0 0 0 0 0 0 0 0 0 0 0 0 0 0 0 0 0 0 0 0 0 0 0 0 0 0 0 0 0 0 0 0 0 0 0 0 0 0 0 0 0 0 0 0 0 0 0 0 0 0 0 0 0 0 0 0 0 0 0 0 23 29 34 38 43 49 54 60 63 68 72 78 83 85 91 98 98 108 112 118 118 126 130 135 139 145 148 153 161 174 189 201 208 223 231 244 262 276 288 302 313 321 333 345 353 367 375 388 407 418 425 440 455 473 497 512 514 530 546 560 570 584 607 620 632 642 652 663 677 688 698 709 723 738 750 764 776 787 799 816 833 846 859 869 881 898 905 914 926 931 943 951 963 968 1006 987 992 1022 1011 1018 1031 1039 1045 1054 1061 1073 1075 1087 1090 1102 1109 1115 1122 1130 1134 1142 1144 1154 1161 1166 1171 1167 1177 1174 1188 1195 1186 1180 1166 1148 1134 1115 1092 1070 1043 1015 983 957 930 889 867 848 847 862 897 922 1011 1009 1139 1246 1319 1114 1143 1173 1317 1202 1202 1195 1149 1139 1163 1223 1241 1283 1223 1215 1227 1234 1236 1239 1244 1251 1252 1263 1278 1293 1318 1325 1348 1553 1369 1387 1440 1434 1529 1485 1411 1463 1488 1436 1417 1415 1422 1434 1511 1427 1344 1331 1308 1300 1652 1388 1288 1275 1273 1276 1258 1258 1255 1263 1284 1312 1293 1293 1281 1297 1312 1333 1332 1407 1564 1363 1355 1343 1348 1351 1359 1363 1369 1380 1383 1393 1437 1487 1398 1370 1354 1359 1358 1352 1346 1335 1306 1323 1323 1331 1322 1313 1330 1317 1313 1308 1323 1344 1372 1374 1381 1382 1382 1380 1384 1379 1380 1365 1374 1363 1345 1364 1357 1355 1352 1344 1343 1344 1345 1332 1331 1328 1322 1321 1320 1324 1327 1364 1379 1360 1363 1376 1390 1402 1415 1420 1424 1423 1431 1445 1456 1474 1486 1500 1494 1506 1605 1660 1577 1557 1551 1538 1528 1550 1591 1586 1545 1578 1558 1543 1559 1563 1567 1650 1613 1633 1644 1664 1628 1613 1562 1549 1550 1554 1554 1560 1582 1585 1627 1762 1844 1818 1812 1806 1801 1796 1800 1786 1773 1785 1787 1776 1776 1767 1755 1754 1762 1762 1749 1742 1739 1738 1735 1728 1722 1734 1731 1729 1721 1721 1711 1706 1707 1727 1720 1722 1716 1710 1711 1703 1709 1698 1694 1687 1689 1676 1671 1678 1677 1679 1666 1666
0 0 0 0 0 0 0 0 0 0 0 0 0 0 0 0 0 0 0 0 0 0 0 0 0 0 0 0 0 0 0 0 0 0 0 0 0 0 0 0 0 0 0 0 0 0 0 0 0 0 0 0 0 0 0 0 0 0 0 0 0 0 0 0 0 0 0 0 0 0 0 0 0 0 0 0 0 0 0 0 0 0 0 0 0 0 0 0 0 0 0 0 0 0 0 0 0 0 0 0 0 0 0 0 0 0 0 0 0 0 0 0 0 0 0 0 0 0 0 0 0 0 0 0 0 0 0 0 10 27 30 35 39 49 51 55 62 63 72 72 78 85 91 90 96 104 109 110 119 122 126 132 132 134 142 154 160 175 184 197 207 222 235 248 260 271 280 293 304 317 326 338 351 356 366 379 400 405 425 433 452 490 503 492 505 518 536 553 564 577 604 612 624 633 645 656 667 679 688 709 720 733 745 759 768 782 797 812 826 839 853 866 880 891 904 917 925 938 945 949 948 959 974 978 988 1001 1012 1020 1026 1032 1045 1057 1059 1067 1071 1081 1087 1099 1101 1109 1120 1118 1122 1129 1137 1149 1150 1161 1155 1160 1162 1169 1183 1185 1184 1167 1156 1140 1124 1105 1079 1055 1024 996 967 932 903 869 841 842 884 924 947 991 1051 1199 1407 1307 1212 1123 1269 1144 1207 1247 1334 1255 1154 1161 1149 1173 1192 1226 1234 1228 1236 1245 1251 1259 1378 1265 1260 1271 1282 1300 1326 1332 1347 1395 1373 1385 1433 1487 1417 1389 1478 1433 1470 1437 1428 1428 1421 1435 1373 1342 1326 1315 1306 1292 1280 1381 1423 1437 1263 1263 1247 1248 1256 1278 1291 1388 1274 1271 1326 1392 1456 1565 1542 1448 1336 1337 1340 1343 1349 1355 1363 1365 1375 1381 1384 1390 1460 1421 1376 1361 1356 1343 1348 1346 1336 1323 1309 1311 1316 1322 1319 1305 1321 1313 1305 1303 1325 1348 1369 1514 1391 1366 1363 1367 1371 1358 1373 1363 1337 1341 1343 1364 1361 1333 1341 1336 1331 1341 1332 1334 1323 1316 1315 1314 1316 1320 1318 1363 1356 1358 1368 1352 1396 1507 1432 1451 1449 1437 1446 1464 1461 1482 1490 1523 1510 1575 1622 1642 1595 1590 1559 1540 1539 1655 1595 1592 1566 1611 1585 1546 1575 1608 1628 1575 1587 1666 1668 1686 1656 1603 1599 1560 1571 1566 1561 1566 1562 1571 1587 1780 1823 1830 1832 1799 1796 1802 1811 1792 1776 1790 1787 1778 1786 1765 1756 1752 1768 1765 1751 1748 1748 1749 1738 1731 1723 1732 1730 1726 1720 1715 1713 1714 1707 1717 1719 1723 1716 1711 1700 1698 1698 1705 1696 1696 1686 1680 1680 1670 1671 1664 1664 1657
0 0 0 0 0 0 0 0 0 0 0 0 0 0 0 0 0 0 0 0 0 0 0 0 0 0 0 0 0 0 0 0 0 0 0 0 0 0 0 0 0 0 0 0 0 0 0 0 0 0 0 0 0 0 0 0 0 0 0 0 0 0 0 0 0 0 0 0 0 0 0 0 0 0 0 0 0 0 0 0 0 0 0 0 0 0 0 0 0 0 0 0 0 0 0 0 0 0 0 0 0 0 0 0 0 0 0 0 0 0 0 0 0 0 0 0 0 0 0 0 0 0 0 0 0 0 0 0 0 25 25 33 39 44 45 52 58 60 64 70 73 82 85 88 94 97 103 106 112 113 118 124 128 129 137 151 162 174 186 196 210 221 234 246 258 265 278 289 307 305 319 331 339 353 365 376 385 412 419 448 469 472 473 481 501 514 531 544 550 607 594 606 618 627 639 653 665 674 689 702 717 727 739 752 762 777 793 806 821 835 851 859 873 884 896 909 919 931 933 944 950 971 964 977 986 995 1004 1015 1025 1027 1041 1049 1058 1059 1067 1073 1082 1089 1096 1104 1105 1108 1117 1121 1127 1132 1137 1142 1142 1142 1150 1160 1170 1171 1165 1160 1145 1130 1109 1086 1059 1034 1003 973 943 907 878 846 834 845 918 909 967 1042 1232 1586 1399 1220 1142 1223 1149 1143 1306 1260 1250 1267 1323 1199 1160 1181 1206 1237 1254 1252 1248 1248 1266 1278 1388 1283 1273 1274 1284 1296 1315 1333 1342 1351 1356 1377 1565 1416 1406 1374 1384 1454 1470 1459 1441 1407 1363 1326 1321 1313 1311 1302 1294 1290 1278 1272 1253 1256 1258 1256 1235 1243 1244 1257 1428 1275 1267 1283 1572 1402 1348 1396 1467 1386 1349 1349 1345 1344 1350 1355 1356 1360 1366 1374 1378 1381 1400 1391 1368 1354 1350 1344 1331 1338 1322 1312 1300 1309 1297 1313 1311 1301 1307 1308 1298 1296 1321 1315 1332 1361 1392 1359 1354 1361 1353 1357 1345 1334 1328 1337 1340 1345 1344 1326 1328 1321 1326 1334 1324 1325 1318 1311 1308 1310 1310 1312 1309 1319 1381 1392 1394 1375 1394 1478 1443 1471 1465 1447 1462 1475 1473 1494 1490 1589 1542 1549 1518 1530 1616 1644 1591 1553 1552 1598 1601 1648 1623 1642 1633 1559 1598 1617 1639 1594 1628 1599 1643 1705 1673 1623 1577 1562 1559 1584 1565 1569 1576 1579 1590 1730 1761 1831 1820 1822 1811 1812 1807 1785 1786 1790 1787 1777 1770 1765 1762 1766 1764 1768 1757 1750 1749 1743 1732 1731 1728 1737 1734 1723 1720 1715 1713 1718 1713 1725 1722 1727 1725 1707 1699 1696 1690 1686 1690 1683 1685 1686 1684 1689 1678 1673 1671 1658
0 0 0 0 0 0 0 0 0 0 0 0 0 0 0 0 0 0 0 0 0 0 0 0 0 0 0 0 0 0 0 0 0 0 0 0 0 0 0 0 0 0 0 0 0 0 0 0 0 0 0 0 0 0 0 0 0 0 0 0 0 0 0 0 0 0 0 0 0 0 0 0 0 0 0 0 0 0 0 0 0 0 0 0 0 0 0 0 0 0 0 0 0 0 0 0 0 0 0 0 0 0 0 0 0 0 0 0 0 0 0 0 0 0 0 0 0 0 0 0 0 0 0 0 0 0 0 0 0 0 23 28 35 39 42 48 54 56 61 65 69 74 78 88 87 93 97 102 104 108 114 116 119 130 143 152 162 174 187 196 207 215 230 240 248 256 271 279 291 299 314 326 334 345 352 366 376 394 416 437 441 450 461 472 490 507 519 529 578 573 586 598 613 620 635 647 656 669 681 695 707 721 734 746 759 770 784 801 817 829 842 855 867 883 892 900 913 924 935 942 949 957 961 976 980 999 999 1007 1021 1028 1036 1052 1056 1054 1060 1066 1077 1082 1090 1095 1096 1094 1107 1110 1115 1121 1124 1129 1128 1129 1136 1148 1153 1156 1151 1139 1128 1110 1089 1064 1041 1011 982 948 907 874 851 824 835 921 913 976 947 1112 1163 1250 1121 1107 1125 1160 1148 1193 1198 1224 1365 1295 1203 1202 1177 1197 1225 1255 1280 1318 1272 1261 1275 1319 1337 1306 1289 1281 1287 1295 1312 1324 1332 1334 1341 1352 1351 1358 1386 1368 1352 1396 1339 1335 1361 1323 1310 1305 1302 1308 1360 1318 1318 1312 1310 1289 1244 1246 1246 1244 1232 1226 1241 1244 1240 1261 1261 1380 1306 1315 1338 1369 1373 1360 1346 1346 1356 1354 1352 1358 1354 1360 1364 1375 1381 1372 1369 1380 1374 1365 1347 1330 1326 1326 1313 1302 1292 1297 1288 1302 1301 1290 1301 1305 1290 1289 1291 1320 1336 1329 1343 1343 1348 1350 1339 1338 1335 1334 1315 1320 1326 1333 1325 1323 1314 1325 1320 1318 1317 1318 1304 1308 1302 1305 1304 1305 1306 1318 1414 1459 1392 1400 1410 1485 1498 1485 1474 1467 1454 1504 1486 1492 1589 1644 1542 1550 1686 1537 1538 1651 1629 1596 1597 1608 1667 1644 1687 1660 1682 1580 1586 1680 1689 1670 1634 1615 1618 1681 1659 1639 1588 1567 1561 1573 1586 1574 1584 1582 1592 1714 1779 1798 1829 1834 1814 1806 1813 1802 1789 1786 1789 1780 1765 1769 1776 1772 1762 1771 1761 1753 1748 1745 1737 1732 1738 1739 1732 1722 1718 1719 1715 1718 1717 1723 1728 1726 1720 1704 1700 1698 1696 1703 1690 1697 1703 1691 1684 1683 1684 1682 1674 1673
0 0 0 0 0 0 0 0 0 0 0 0 0 0 0 0 0 0 0 0 0 0 0 0 0 0 0 0 0 0 0 0 0 0 0 0 0 0 0 0 0 0 0 0 0 0 0 0 0 0 0 0 0 0 0 0 0 0 0 0 0 0 0 0 0 0 0 0 0 0 0 0 0 0 0 0 0 0 0 0 0 0 0 0 0 0 0 0 0 0 0 0 0 0 0 0 0 0 0 0 0 0 0 0 0 0 0 0 0 0 0 0 0 0 0 0 0 0 0 0 0 0 0 0 0 0 0 0 0 0 0 25 30 35 39 43 48 51 55 62 66 69 75 80 83 87 91 95 102 103 107 112 116 128 135 147 157 168 179 189 203 209 222 233 241 252 261 272 279 294 306 321 326 335 347 362 371 385 409 418 429 442 455 471 485 501 511 527 555 568 581 590 604 615 625 638 652 662 675 688 700 715 726 738 754 766 782 794 808 823 838 850 864 878 887 899 912 923 926 929 940 946 952 961 974 984 994 1042 1017 1025 1033 1040 1039 1049 1054 1064 1073 1082 1089 1083 1084 1087 1095 1097 1105 1111 1112 1112 1118 1115 1121 1127 1130 1133 1129 1122 1109 1088 1055 1037 1009 976 954 915 887 854 829 818 846 982 945 988 1034 965 966 994 1076 1167 1187 1189 1155 1165 1256 1233 1312 1317 1236 1200 1190 1212 1238 1391 1560 1612 1303 1279 1276 1431 1349 1314 1293 1280 1280 1290 1326 1407 1352 1323 1330 1334 1336 1341 1343 1354 1335 1338 1311 1307 1305 1301 1293 1290 1293 1303 1318 1337 1367 1381 1346 1311 1247 1233 1244 1246 1230 1219 1237 1333 1318 1330 1267 1287 1307 1314 1340 1355 1387 1365 1356 1350 1349 1360 1356 1358 1362 1365 1371 1373 1378 1365 1356 1349 1355 1352 1346 1334 1320 1312 1305 1293 1287 1268 1276 1291 1293 1284 1289 1301 1286 1279 1280 1308 1316 1317 1327 1326 1338 1338 1334 1329 1320 1312 1308 1308 1315 1316 1315 1309 1320 1344 1322 1307 1306 1302 1307 1302 1296 1296 1297 1305 1307 1315 1381 1528 1414 1442 1468 1456 1466 1594 1553 1558 1460 1475 1487 1508 1522 1531 1548 1576 1684 1558 1565 1557 1572 1576 1627 1595 1681 1716 1747 1659 1714 1648 1627 1621 1674 1696 1717 1731 1699 1683 1624 1613 1606 1566 1564 1589 1580 1590 1594 1588 1592 1708 1780 1800 1814 1828 1811 1819 1815 1799 1798 1793 1794 1780 1770 1779 1766 1770 1771 1766 1757 1752 1750 1740 1731 1743 1742 1740 1738 1730 1725 1725 1722 1723 1721 1730 1735 1729 1712 1704 1700 1706 1702 1699 1708 1703 1702 1697 1694 1695 1693 1685 1684 1683
0 0 0 0 0 0 0 0 0 0 0 0 0 0 0 0 0 0 0 0 0 0 0 0 0 0 0 0 0 0 0 0 0 0 0 0 0 0 0 0 0 0 0 0 0 0 0 0 0 0 0 0 0 0 0 0 0 0 0 0 0 0 0 0 0 0 0 0 0 0 0 0 0 0 0 0 0 0 0 0 0 0 0 0 0 0 0 0 0 0 0 0 0 0 0 0 0 0 0 0 0 0 0 0 0 0 0 0 0 0 0 0 0 0 0 0 0 0 0 0 0 0 0 0 0 0 0 0 0 0 0 -1 28 29 35 39 42 48 51 58 58 66 70 76 78 83 87 91 96 99 103 107 118 125 137 150 157 165 177 186 200 205 217 225 237 246 255 265 282 290 304 308 320 333 342 359 370 383 400 412 430 440 457 474 486 504 518 538 550 561 572 585 597 610 622 633 643 656 666 680 695 706 720 734 748 762 775 789 804 816 827 846 856 870 882 892 902 910 916 927 928 942 945 958 969 988 980 1027 1010 1017 1029 1033 1035 1045 1054 1062 1074 1087 1084 1086 1080 1078 1093 1086 1092 1097 1093 1096 1099 1095 1101 1105 1109 1109 1106 1098 1079 1055 1032 1007 979 946 917 882 853 822 815 829 964 951 917 952 972 997 1016 1038 1131 1186 1176 1188 1185 1191 1216 1387 1476 1262 1230 1216 1219 1252 1262 1313 1346 1447 1307 1289 1285 1298 1435 1345 1303 1275 1275 1274 1278 1289 1302 1303 1313 1321 1324 1324 1323 1315 1343 1307 1300 1291 1286 1283 1276 1285 1298 1314 1335 1344 1370 1364 1393 1290 1234 1222 1234 1241 1218 1214 1256 1276 1448 1347 1278 1301 1311 1319 1336 1371 1349 1367 1362 1359 1358 1360 1369 1365 1373 1371 1375 1380 1371 1359 1355 1338 1339 1337 1332 1328 1317 1315 1299 1294 1274 1258 1278 1279 1274 1270 1277 1288 1303 1273 1271 1290 1296 1305 1318 1314 1315 1315 1328 1319 1318 1304 1289 1298 1297 1298 1299 1297 1313 1326 1307 1300 1301 1295 1295 1294 1289 1296 1306 1303 1310 1322 1380 1435 1413 1416 1414 1473 1618 1669 1498 1473 1469 1488 1494 1509 1538 1530 1548 1569 1613 1673 1605 1593 1567 1566 1639 1678 1713 1672 1701 1672 1669 1650 1671 1685 1677 1724 1709 1744 1716 1724 1719 1645 1666 1575 1570 1564 1572 1582 1612 1597 1591 1703 1747 1756 1799 1823 1821 1825 1809 1802 1800 1804 1787 1786 1779 1780 1771 1774 1771 1754 1753 1744 1738 1738 1737 1742 1742 1747 1742 1730 1731 1725 1727 1730 1735 1743 1737 1728 1715 1710 1713 1708 1708 1705 1719 1712 1707 1708 1717 1709 1697 1691 1685 1677
0 0 0 0 0 0 0 0 0 0 0 0 0 0 0 0 0 0 0 0 0 0 0 0 0 0 0 0 0 0 0 0 0 0 0 0 0 0 0 0 0 0 0 0 0 0 0 0 0 0 0 0 0 0 0 0 0 0 0 0 0 0 0 0 0 0 0 0 0 0 0 0 0 0 0 0 0 0 0 0 0 0 0 0 0 0 0 0 0 0 0 0 0 0 0 0 0 0 0 0 0 0 0 0 0 0 0 0 0 0 0 0 0 0 0 0 0 0 0 0 0 0 0 0 0 0 0 0 0 0 0 0 3 27 30 35 38 44 43 55 61 64 66 70 75 77 82 85 90 95 102 103 114 120 133 142 149 160 174 193 190 199 209 219 228 237 249 267 270 285 297 305 316 329 351 355 369 381 396 408 423 438 457 473 490 504 539 533 546 558 565 577 588 602 615 626 636 648 661 675 686 703 718 727 743 757 769 782 792 808 822 837 852 863 873 889 900 898 920 916 922 925 942 947 952 965 998 1000 1009 1016 1026 1033 1042 1055 1062 1064 1072 1085 1083 1074 1064 1070 1080 1081 1077 1082 1080 1082 1081 1071 1076 1074 1079 1083 1083 1067 1050 1026 1003 972 935 909 875 847 818 805 812 839 874 889 922 955 986 1096 1026 1044 1101 1166 1347 1190 1228 1199 1300 1304 1286 1258 1244 1331 1231 1241 1252 1278 1304 1498 1324 1297 1325 1268 1271 1301 1264 1292 1264 1262 1273 1280 1287 1293 1299 1303 1313 1312 1307 1298 1316 1290 1281 1278 1272 1268 1273 1288 1312 1323 1340 1359 1392 1407 1390 1249 1224 1219 1221 1224 1212 1209 1247 1270 1274 1291 1297 1309 1323 1344 1347 1330 1351 1366 1372 1365 1364 1366 1362 1366 1372 1381 1383 1375 1360 1347 1345 1334 1322 1325 1327 1313 1305 1305 1301 1285 1278 1251 1271 1273 1261 1263 1273 1292 1288 1280 1262 1273 1288 1290 1308 1300 1298 1319 1324 1306 1308 1292 1285 1287 1291 1286 1286 1291 1306 1299 1295 1304 1291 1288 1286 1289 1293 1298 1316 1312 1313 1321 1363 1397 1382 1403 1496 1595 1640 1541 1485 1500 1481 1478 1492 1515 1678 1533 1549 1579 1599 1668 1704 1675 1652 1608 1635 1675 1698 1697 1748 1684 1680 1678 1706 1698 1742 1735 1753 1742 1726 1714 1682 1647 1621 1571 1572 1575 1577 1582 1590 1616 1598 1720 1725 1752 1792 1840 1824 1824 1814 1815 1808 1806 1803 1795 1786 1782 1779 1782 1764 1762 1752 1755 1751 1748 1734 1733 1746 1747 1746 1738 1730 1735 1736 1737 1741 1726 1729 1722 1721 1719 1730 1722 1723 1709 1707 1704 1708 1752 1872 1733 1697 1694 1688 1683
0 0 0 0 0 0 0 0 0 0 0 0 0 0 0 0 0 0 0 0 0 0 0 0 0 0 0 0 0 0 0 0 0 0 0 0 0 0 0 0 0 0 0 0 0 0 0 0 0 0 0 0 0 0 0 0 0 0 0 0 0 0 0 0 0 0 0 0 0 0 0 0 0 0 0 0 0 0 0 0 0 0 0 0 0 0 0 0 0 0 0 0 0 0 0 0 0 0 0 0 0 0 0 0 0 0 0 0 0 0 0 0 0 0 0 0 0 0 0 0 0 0 0 0 0 0 0 0 0 0 0 0 0 23 26 31 27 44 45 50 51 56 62 68 67 72 78 82 85 89 94 99 110 122 129 136 147 160 169 177 183 198 205 215 219 232 259 256 269 282 287 301 315 334 344 363 375 383 396 407 423 435 452 468 485 500 513 524 537 549 560 576 583 595 608 619 631 642 654 666 683 697 709 723 736 748 761 774 786 801 818 831 845 860 871 883 883 891 904 906 913 923 936 950 962 979 1000 1009 1008 1016 1027 1039 1044 1054 1060 1062 1089 1067 1062 1069 1056 1057 1059 1063 1057 1058 1062 1057 1068 1056 1050 1047 1051 1051 1048 1031 1016 987 962 933 897 858 839 805 796 807 844 922 860 887 945 958 990 1012 1087 1175 1257 1553 1220 1228 1258 1236 1505 1316 1287 1262 1312 1271 1242 1247 1261 1268 1280 1379 1295 1277 1355 1252 1250 1252 1279 1281 1259 1254 1265 1270 1279 1286 1291 1295 1301 1298 1294 1288 1286 1278 1273 1268 1258 1262 1274 1294 1313 1327 1345 1374 1411 1403 1369 1224 1211 1209 1210 1207 1203 1218 1248 1267 1277 1289 1312 1314 1326 1326 1318 1339 1359 1399 1356 1351 1351 1354 1354 1368 1376 1386 1382 1374 1358 1343 1340 1330 1316 1298 1311 1310 1297 1293 1302 1280 1276 1246 1264 1258 1250 1276 1268 1281 1274 1260 1254 1274 1283 1285 1294 1297 1289 1278 1283 1295 1284 1279 1274 1278 1274 1278 1281 1283 1282 1285 1292 1308 1286 1281 1286 1290 1306 1304 1304 1309 1315 1321 1341 1411 1401 1402 1482 1587 1532 1513 1663 1520 1507 1493 1500 1503 1526 1549 1557 1567 1596 1657 1724 1701 1612 1632 1644 1719 1712 1701 1718 1746 1727 1724 1698 1713 1759 1783 1772 1775 1741 1697 1670 1695 1672 1575 1578 1579 1593 1597 1618 1609 1610 1731 1739 1754 1808 1808 1836 1834 1831 1814 1821 1821 1803 1799 1781 1791 1786 1779 1775 1754 1757 1756 1758 1742 1749 1746 1754 1756 1762 1749 1745 1747 1744 1734 1728 1730 1717 1728 1724 1701 1717 1711 1720 1713 1715 1702 1697 1762 1715 1695 1686 1680 1681 1672
0 0 0 0 0 0 0 0 0 0 0 0 0 0 0 0 0 0 0 0 0 0 0 0 0 0 0 0 0 0 0 0 0 0 0 0 0 0 0 0 0 0 0 0 0 0 0 0 0 0 0 0 0 0 0 0 0 0 0 0 0 0 0 0 0 0 0 0 0 0 0 0 0 0 0 0 0 0 0 0 0 0 0 0 0 0 0 0 0 0 0 0 0 0 0 0 0 0 0 0 0 0 0 0 0 0 0 0 0 0 0 0 0 0 0 0 0 0 0 0 0 0 0 0 0 0 0 0 0 0 0 0 0 0 7 29 34 37 44 45 48 53 55 62 63 70 74 77 81 83 90 102 110 117 125 138 147 153 167 171 181 190 200 210 222 232 242 253 269 273 294 308 317 324 343 352 371 382 392 409 419 437 451 465 475 497 507 523 527 540 556 565 575 590 600 610 622 634 647 664 678 689 705 716 728 739 753 769 780 798 810 825 843 855 869 876 877 880 892 906 927 931 940 947 973 969 991 997 1001 1014 1021 1031 1038 1050 1051 1053 1059 1071 1047 1046 1045 1037 1044 1044 1041 1042 1042 1042 1043 1032 1014 1015 1014 1014 1005 994 971 947 919 890 862 818 788 787 809 836 858 910 938 1022 1026 963 1000 1091 1146 1452 1486 1300 1230 1249 1387 1422 1441 1337 1331 1280 1276 1267 1258 1257 1253 1257 1268 1279 1410 1356 1259 1234 1238 1239 1235 1245 1244 1251 1257 1262 1270 1275 1280 1283 1285 1287 1284 1276 1274 1270 1261 1257 1247 1255 1272 1288 1308 1331 1347 1458 1337 1352 1236 1216 1199 1197 1199 1200 1198 1216 1245 1262 1274 1291 1301 1291 1314 1304 1344 1346 1356 1382 1375 1336 1341 1345 1354 1371 1381 1388 1396 1377 1362 1341 1327 1313 1314 1299 1304 1293 1282 1297 1288 1280 1261 1249 1240 1258 1237 1242 1263 1270 1259 1256 1246 1263 1263 1273 1278 1285 1297 1292 1259 1276 1273 1270 1265 1270 1262 1268 1277 1274 1272 1281 1286 1289 1286 1275 1276 1296 1297 1307 1316 1314 1318 1324 1330 1356 1407 1393 1457 1490 1524 1524 1549 1555 1516 1496 1498 1507 1559 1527 1554 1566 1593 1668 1735 1694 1628 1678 1684 1700 1713 1746 1727 1780 1758 1743 1731 1745 1747 1805 1765 1797 1754 1733 1699 1728 1637 1578 1585 1582 1590 1603 1610 1611 1704 1722 1728 1731 1771 1791 1830 1853 1834 1820 1807 1800 1798 1793 1800 1800 1799 1777 1765 1764 1768 1762 1757 1743 1759 1761 1759 1761 1757 1756 1737 1743 1741 1732 1720 1733 1715 1724 1709 1703 1713 1710 1709 1700 1699 1701 1693 1690 1694 1680 1683 1683 1677 1681
0 0 0 0 0 0 0 0 0 0 0 0 0 0 0 0 0 0 0 0 0 0 0 0 0 0 0 0 0 0 0 0 0 0 0 0 0 0 0 0 0 0 0 0 0 0 0 0 0 0 0 0 0 0 0 0 0 0 0 0 0 0 0 0 0 0 0 0 0 0 0 0 0 0 0 0 0 0 0 0 0 0 0 0 0 0 0 0 0 0 0 0 0 0 0 0 0 0 0 0 0 0 0 0 0 0 0 0 0 0 0 0 0 0 0 0 0 0 0 0 0 0 0 0 0 0 0 0 0 0 0 0 0 0 0 27 33 34 36 41 43 47 50 56 59 64 68 74 76 79 87 96 102 111 122 129 141 147 164 168 177 184 193 205 221 229 236 248 253 265 287 314 320 327 345 350 366 384 401 411 423 448 462 466 478 491 498 509 524 537 550 559 570 582 595 605 615 629 644 657 675 686 699 706 719 733 747 762 775 791 805 821 834 847 856 859 869 880 893 899 915 933 937 951 965 973 984 991 1001 1008 1015 1028 1040 1051 1042 1042 1048 1059 1047 1030 1024 1020 1026 1024 1020 1018 1018 1013 1014 1007 988 981 976 975 966 954 932 900 874 844 816 786 789 800 816 861 949 890 956 1009 1016 1065 1070 1216 1526 1383 1365 1260 1241 1273 1412 1478 1369 1302 1283 1279 1290 1251 1245 1254 1249 1249 1255 1302 1345 1273 1259 1227 1219 1217 1227 1233 1239 1243 1254 1257 1265 1270 1268 1273 1273 1272 1278 1264 1264 1262 1251 1246 1238 1248 1263 1284 1300 1316 1392 1464 1271 1244 1225 1210 1195 1190 1203 1186 1195 1212 1284 1273 1276 1278 1282 1287 1295 1304 1334 1331 1342 1330 1344 1324 1331 1347 1360 1357 1372 1379 1375 1367 1368 1343 1321 1309 1303 1285 1286 1278 1271 1267 1266 1270 1275 1252 1246 1245 1229 1231 1269 1258 1255 1249 1240 1245 1261 1280 1251 1265 1286 1279 1257 1250 1263 1282 1259 1256 1257 1263 1266 1268 1272 1273 1276 1281 1292 1271 1278 1284 1311 1313 1314 1321 1323 1328 1334 1344 1373 1426 1448 1472 1481 1521 1548 1569 1573 1514 1501 1504 1597 1563 1559 1557 1607 1627 1735 1690 1623 1668 1724 1726 1747 1766 1759 1777 1760 1787 1727 1767 1805 1805 1791 1766 1771 1743 1722 1731 1745 1583 1606 1583 1605 1632 1633 1619 1622 1741 1814 1787 1800 1816 1806 1841 1850 1873 1841 1802 1803 1805 1801 1798 1781 1775 1772 1776 1767 1750 1750 1749 1766 1771 1754 1746 1744 1736 1731 1735 1722 1725 1718 1712 1713 1702 1715 1700 1702 1702 1710 1714 1710 1699 1696 1693 1687 1687 1690 1696 1689 1690
0 0 0 0 0 0 0 0 0 0 0 0 0 0 0 0 0 0 0 0 0 0 0 0 0 0 0 0 0 0 0 0 0 0 0 0 0 0 0 0 0 0 0 0 0 0 0 0 0 0 0 0 0 0 0 0 0 0 0 0 0 0 0 0 0 0 0 0 0 0 0 0 0 0 0 0 0 0 0 0 0 0 0 0 0 0 0 0 0 0 0 0 0 0 0 0 0 0 0 0 0 0 0 0 0 0 0 0 0 0 0 0 0 0 0 0 0 0 0 0 0 0 0 0 0 0 0 0 0 0 0 0 0 0 0 0 28 29 36 33 40 42 47 52 54 62 64 68 70 75 85 89 101 110 118 123 129 147 153 159 167 181 189 202 215 220 229 241 248 266 282 296 308 324 341 348 369 404 411 428 435 453 471 488 470 482 493 501 516 528 539 547 562 574 588 600 612 622 635 653 666 677 686 699 714 728 742 757 771 789 802 814 828 841 843 864 870 883 889 900 912 925 928 942 950 968 968 996 991 1008 1020 1034 1054 1080 1035 1029 1047 1039 1028 1017 1009 1008 1004 1004 995 997 992 989 985 978 963 943 933 936 925 908 885 853 831 800 772 771 801 818 842 920 895 925 946 1033 1094 1075 1293 1364 1247 1370 1347 1311 1246 1316 1423 1308 1280 1320 1273 1284 1245 1238 1238 1249 1245 1239 1227 1227 1408 1238 1228 1213 1207 1226 1229 1238 1249 1243 1247 1265 1276 1267 1260 1257 1264 1269 1263 1266 1251 1256 1243 1238 1232 1244 1259 1274 1301 1288 1408 1264 1243 1235 1217 1204 1198 1196 1179 1299 1230 1232 1231 1248 1255 1279 1284 1302 1323 1396 1342 1332 1313 1332 1307 1320 1334 1342 1339 1353 1365 1368 1363 1360 1339 1339 1321 1305 1289 1275 1268 1270 1252 1257 1258 1252 1264 1222 1243 1232 1220 1249 1255 1247 1241 1237 1228 1240 1243 1254 1250 1269 1264 1316 1308 1295 1237 1259 1250 1246 1253 1257 1265 1264 1270 1273 1264 1278 1264 1264 1278 1293 1305 1313 1335 1332 1337 1336 1338 1345 1354 1364 1471 1482 1550 1483 1497 1571 1558 1531 1515 1520 1519 1542 1568 1596 1625 1648 1710 1672 1650 1717 1733 1753 1780 1770 1765 1780 1766 1791 1730 1759 1805 1826 1807 1792 1780 1775 1764 1703 1625 1599 1605 1594 1593 1605 1621 1638 1723 1804 1798 1813 1844 1839 1832 1855 1834 1813 1812 1825 1807 1825 1813 1814 1783 1786 1788 1766 1762 1763 1758 1752 1767 1767 1762 1736 1734 1731 1731 1720 1717 1718 1718 1730 1718 1703 1691 1710 1691 1689 1703 1700 1689 1703 1703 1705 1698 1700 1702 1693 1685 1674
0 0 0 0 0 0 0 0 0 0 0 0 0 0 0 0 0 0 0 0 0 0 0 0 0 0 0 0 0 0 0 0 0 0 0 0 0 0 0 0 0 0 0 0 0 0 0 0 0 0 0 0 0 0 0 0 0 0 0 0 0 0 0 0 0 0 0 0 0 0 0 0 0 0 0 0 0 0 0 0 0 0 0 0 0 0 0 0 0 0 0 0 0 0 0 0 0 0 0 0 0 0 0 0 0 0 0 0 0 0 0 0 0 0 0 0 0 0 0 0 0 0 0 0 0 0 0 0 0 0 0 0 0 0 0 0 0 26 27 32 36 36 41 50 51 56 60 64 69 72 85 84 95 104 114 124 126 139 143 153 167 177 189 198 204 220 221 231 251 261 274 287 305 318 336 349 384 378 385 402 415 439 503 459 466 476 482 495 507 519 529 542 557 567 579 589 603 612 625 642 658 668 681 695 708 724 741 754 770 785 800 806 823 833 843 858 870 878 882 896 917 909 938 934 957 955 967 981 990 1002 1026 1041 1048 1037 1018 1026 1027 1022 1014 1000 988 984 984 984 975 973 967 965 958 952 931 907 888 892 886 871 854 816 770 758 774 789 806 831 904 882 899 902 951 1002 988 1028 1060 1104 1109 1103 1119 1217 1213 1417 1454 1272 1273 1271 1251 1323 1248 1228 1239 1258 1306 1240 1198 1192 1202 1214 1208 1200 1206 1213 1225 1238 1253 1266 1286 1257 1264 1253 1249 1245 1243 1249 1261 1270 1247 1236 1235 1228 1223 1235 1245 1261 1274 1270 1260 1236 1222 1210 1204 1198 1202 1172 1175 1181 1216 1232 1232 1249 1259 1280 1306 1328 1332 1366 1341 1314 1340 1298 1313 1315 1326 1319 1337 1345 1368 1354 1342 1341 1329 1313 1312 1296 1279 1268 1253 1253 1238 1254 1244 1241 1279 1219 1231 1215 1213 1241 1238 1240 1237 1228 1224 1241 1228 1234 1227 1260 1300 1294 1266 1277 1220 1233 1234 1245 1246 1258 1260 1262 1261 1266 1259 1267 1273 1270 1296 1305 1333 1350 1357 1340 1338 1347 1345 1345 1354 1356 1408 1522 1473 1492 1489 1515 1594 1528 1527 1536 1625 1544 1547 1567 1671 1686 1730 1691 1691 1721 1774 1764 1776 1794 1817 1810 1802 1816 1809 1786 1822 1802 1790 1776 1755 1739 1700 1675 1620 1599 1632 1601 1606 1621 1625 1645 1758 1804 1825 1795 1833 1846 1823 1857 1845 1833 1842 1839 1828 1823 1854 1787 1791 1792 1775 1774 1785 1773 1767 1770 1764 1746 1743 1742 1732 1730 1723 1722 1716 1714 1710 1707 1704 1712 1705 1698 1703 1696 1690 1690 1691 1682 1681 1681 1689 1698 1696 1689 1680 1674
0 0 0 0 0 0 0 0 0 0 0 0 0 0 0 0 0 0 0 0 0 0 0 0 0 0 0 0 0 0 0 0 0 0 0 0 0 0 0 0 0 0 0 0 0 0 0 0 0 0 0 0 0 0 0 0 0 0 0 0 0 0 0 0 0 0 0 0 0 0 0 0 0 0 0 0 0 0 0 0 0 0 0 0 0 0 0 0 0 0 0 0 0 0 0 0 0 0 0 0 0 0 0 0 0 0 0 0 0 0 0 0 0 0 0 0 0 0 0 0 0 0 0 0 0 0 0 0 0 0 0 0 0 0 0 0 0 4 19 29 28 31 40 45 49 50 56 59 65 77 77 80 96 100 110 116 126 136 136 153 162 170 181 187 199 210 219 230 244 259 271 283 309 315 330 349 350 363 379 393 410 443 437 475 468 466 476 488 499 511 521 534 548 559 573 581 593 608 619 635 649 659 673 688 700 718 734 750 763 777 791 802 821 823 837 849 861 864 876 892 896 907 925 934 940 949 975 974 987 1001 1015 1023 1040 1030 1007 1016 1011 1006 993 979 971 959 959 961 951 941 937 926 924 925 908 882 855 843 835 826 806 776 753 772 797 810 833 843 863 893 906 931 940 972 972 1011 1055 1081 1060 1074 1114 1150 1170 1295 1441 1250 1256 1284 1245 1228 1217 1237 1323 1549 1250 1186 1174 1178 1183 1187 1193 1187 1196 1208 1225 1248 1255 1251 1268 1264 1265 1252 1244 1237 1232 1237 1238 1267 1253 1228 1227 1220 1216 1227 1246 1253 1251 1249 1236 1228 1220 1227 1191 1209 1206 1241 1169 1202 1228 1219 1243 1262 1276 1304 1340 1358 1439 1359 1317 1298 1291 1298 1294 1307 1309 1320 1345 1363 1370 1353 1338 1322 1337 1317 1292 1285 1271 1255 1258 1231 1219 1233 1220 1230 1239 1220 1205 1203 1209 1221 1244 1237 1226 1225 1210 1219 1212 1226 1269 1373 1248 1214 1211 1216 1217 1227 1228 1239 1246 1255 1266 1247 1247 1251 1259 1267 1289 1289 1279 1289 1409 1344 1398 1408 1359 1350 1352 1353 1354 1356 1371 1446 1524 1554 1506 1523 1549 1540 1541 1557 1552 1663 1547 1582 1678 1659 1722 1723 1689 1742 1778 1816 1810 1806 1832 1830 1851 1838 1781 1797 1809 1787 1771 1780 1759 1723 1720 1681 1679 1663 1639 1604 1619 1617 1659 1663 1686 1845 1822 1837 1822 1845 1854 1858 1829 1845 1834 1866 1820 1819 1813 1811 1807 1817 1781 1781 1795 1774 1784 1769 1754 1748 1752 1757 1739 1738 1737 1733 1722 1727 1715 1717 1727 1721 1713 1714 1715 1703 1700 1706 1701 1697 1688 1686 1675 1677 1677 1673 1672 1672
0 0 0 0 0 0 0 0 0 0 0 0 0 0 0 0 0 0 0 0 0 0 0 0 0 0 0 0 0 0 0 0 0 0 0 0 0 0 0 0 0 0 0 0 0 0 0 0 0 0 0 0 0 0 0 0 0 0 0 0 0 0 0 0 0 0 0 0 0 0 0 0 0 0 0 0 0 0 0 0 0 0 0 0 0 0 0 0 0 0 0 0 0 0 0 0 0 0 0 0 0 0 0 0 0 0 0 0 0 0 0 0 0 0 0 0 0 0 0 0 0 0 0 0 0 0 0 0 0 0 0 0 0 0 0 0 0 0 14 20 29 29 38 40 42 47 52 56 62 69 67 72 87 91 101 114 117 127 135 151 155 166 176 186 195 205 218 230 244 264 281 294 300 316 326 333 353 361 372 384 402 421 433 451 459 457 471 481 492 502 514 527 540 551 562 576 588 604 615 629 639 651 665 680 697 711 725 742 759 769 784 794 808 817 830 837 848 860 870 882 892 903 918 924 937 947 960 978 985 1005 1021 1021 1016 1015 1001 1001 997 986 973 960 944 937 936 932 928 914 913 891 898 893 884 862 831 808 798 779 764 742 759 787 832 889 851 876 885 912 917 943 969 978 981 999 1037 1035 1064 1076 1106 1122 1148 1246 1216 1221 1234 1237 1225 1211 1217 1340 1598 1282 1181 1164 1166 1161 1170 1162 1156 1173 1186 1203 1211 1222 1230 1233 1240 1247 1260 1252 1247 1228 1225 1219 1229 1235 1246 1220 1217 1210 1209 1232 1230 1228 1235 1251 1252 1246 1224 1198 1197 1185 1167 1172 1174 1224 1210 1266 1269 1288 1317 1342 1494 1550 1440 1338 1306 1286 1271 1285 1287 1289 1315 1324 1334 1352 1368 1369 1347 1323 1307 1305 1284 1269 1255 1247 1242 1236 1206 1222 1215 1230 1228 1204 1209 1193 1200 1206 1231 1222 1219 1215 1205 1206 1208 1208 1230 1198 1205 1205 1221 1234 1220 1217 1235 1233 1259 1237 1243 1248 1256 1269 1262 1268 1297 1363 1294 1283 1378 1389 1416 1381 1349 1355 1355 1360 1368 1365 1370 1409 1508 1614 1528 1632 1604 1544 1563 1680 1576 1626 1576 1570 1678 1728 1732 1749 1751 1715 1725 1755 1775 1819 1809 1878 1873 1830 1826 1821 1816 1807 1783 1782 1760 1746 1733 1709 1628 1657 1648 1622 1672 1630 1640 1672 1687 1829 1864 1844 1830 1842 1872 1844 1856 1850 1857 1851 1857 1807 1806 1816 1817 1797 1783 1796 1799 1771 1774 1782 1756 1763 1757 1748 1732 1710 1746 1742 1733 1736 1728 1721 1732 1731 1728 1725 1716 1705 1713 1709 1703 1694 1699 1694 1688 1682 1680 1684 1681 1682
0 0 0 0 0 0 0 0 0 0 0 0 0 0 0 0 0 0 0 0 0 0 0 0 0 0 0 0 0 0 0 0 0 0 0 0 0 0 0 0 0 0 0 0 0 0 0 0 0 0 0 0 0 0 0 0 0 0 0 0 0 0 0 0 0 0 0 0 0 0 0 0 0 0 0 0 0 0 0 0 0 0 0 0 0 0 0 0 0 0 0 0 0 0 0 0 0 0 0 0 0 0 0 0 0 0 0 0 0 0 0 0 0 0 0 0 0 0 0 0 0 0 0 0 0 0 0 0 0 0 0 0 0 0 0 0 0 0 15 15 23 27 35 35 37 44 47 53 55 58 60 73 77 82 98 104 117 125 133 139 154 163 171 193 195 203 219 231 250 264 282 292 302 307 319 334 344 359 374 389 401 410 438 442 449 449 461 472 484 495 508 520 534 545 558 571 580 595 605 619 629 646 661 674 692 703 719 736 750 763 774 787 799 811 822 837 844 852 866 875 892 903 913 926 932 949 962 977 1012 997 1007 1004 1003 996 994 974 969 967 957 945 927 913 912 902 895 887 882 870 853 863 857 830 813 770 752 731 732 753 778 822 968 854 872 889 908 917 935 956 973 989 1001 1012 1065 1065 1072 1095 1103 1125 1202 1169 1199 1198 1203 1209 1213 1206 1233 1479 1384 1188 1150 1145 1157 1142 1151 1158 1146 1157 1174 1188 1206 1206 1211 1223 1238 1253 1265 1280 1242 1233 1221 1206 1212 1209 1205 1206 1210 1207 1199 1214 1217 1221 1235 1250 1296 1310 1238 1205 1188 1229 1186 1149 1167 1172 1197 1247 1258 1393 1325 1414 1499 1331 1319 1308 1346 1268 1258 1268 1283 1303 1304 1314 1340 1352 1362 1351 1336 1327 1301 1298 1278 1264 1246 1234 1222 1217 1202 1215 1196 1225 1209 1203 1205 1185 1187 1200 1215 1207 1211 1208 1201 1196 1190 1200 1200 1206 1217 1224 1235 1238 1257 1244 1236 1239 1236 1245 1261 1249 1254 1273 1274 1276 1309 1300 1370 1295 1289 1308 1340 1331 1332 1343 1365 1372 1379 1370 1377 1385 1429 1464 1505 1706 1664 1578 1557 1630 1599 1696 1575 1584 1731 1792 1723 1779 1777 1776 1788 1766 1757 1769 1800 1842 1872 1854 1817 1817 1802 1812 1793 1801 1771 1735 1735 1709 1655 1681 1642 1643 1672 1663 1672 1673 1742 1814 1869 1868 1849 1846 1861 1860 1852 1859 1863 1857 1845 1835 1798 1783 1777 1769 1763 1763 1785 1778 1758 1747 1740 1745 1733 1737 1732 1699 1704 1706 1702 1701 1688 1700 1712 1711 1693 1704 1702 1708 1692 1707 1692 1699 1695 1698 1692 1695 1691 1687 1682 1683
0 0 0 0 0 0 0 0 0 0 0 0 0 0 0 0 0 0 0 0 0 0 0 0 0 0 0 0 0 0 0 0 0 0 0 0 0 0 0 0 0 0 0 0 0 0 0 0 0 0 0 0 0 0 0 0 0 0 0 0 0 0 0 0 0 0 0 0 0 0 0 0 0 0 0 0 0 0 0 0 0 0 0 0 0 0 0 0 0 0 0 0 0 0 0 0 0 0 0 0 0 0 0 0 0 0 0 0 0 0 0 0 0 0 0 0 0 0 0 0 0 0 0 0 0 0 0 0 0 0 0 0 0 0 0 0 0 0 15 15 14 26 28 31 36 42 45 47 47 47 58 68 77 86 102 105 113 121 131 140 153 165 175 179 191 206 228 244 245 260 274 278 295 305 320 336 343 357 367 384 391 408 416 429 438 447 457 469 477 489 501 512 523 539 550 561 578 589 599 613 625 639 653 667 682 693 712 726 741 753 769 775 793 805 815 823 834 849 857 871 893 902 911 918 932 945 957 981 981 989 997 995 996 982 976 963 952 949 939 921 901 890 877 885 863 867 839 863 824 831 833 806 774 741 725 746 769 771 841 888 871 872 891 916 928 942 952 964 985 1008 1023 1137 1057 1073 1090 1108 1129 1237 1173 1205 1187 1185 1194 1200 1221 1269 1410 1196 1151 1140 1142 1130 1130 1122 1150 1156 1118 1145 1166 1188 1194 1207 1216 1229 1253 1345 1274 1262 1256 1244 1225 1207 1195 1197 1190 1197 1194 1202 1191 1200 1207 1220 1210 1234 1301 1274 1287 1240 1186 1210 1176 1129 1146 1170 1187 1211 1242 1253 1271 1283 1290 1295 1299 1334 1278 1244 1257 1274 1292 1287 1303 1320 1338 1341 1354 1345 1325 1306 1297 1284 1269 1261 1246 1262 1223 1197 1201 1182 1213 1200 1223 1191 1185 1177 1180 1196 1198 1201 1212 1206 1196 1189 1184 1186 1203 1196 1246 1241 1272 1273 1274 1241 1254 1242 1251 1244 1281 1265 1255 1276 1278 1288 1283 1403 1312 1308 1292 1301 1309 1362 1369 1363 1374 1371 1368 1390 1378 1384 1409 1454 1652 1592 1674 1625 1585 1638 1676 1724 1722 1575 1750 1747 1784 1821 1813 1835 1818 1773 1797 1825 1829 1857 1867 1879 1839 1830 1824 1816 1820 1796 1763 1751 1721 1704 1685 1675 1671 1675 1673 1650 1690 1691 1776 1837 1871 1879 1862 1858 1859 1870 1857 1809 1807 1856 1834 1816 1817 1805 1784 1755 1750 1755 1740 1780 1769 1764 1754 1724 1721 1730 1747 1716 1711 1689 1702 1693 1681 1679 1701 1705 1699 1677 1686 1699 1679 1696 1674 1689 1687 1689 1690 1684 1686 1683 1688 1702
0 0 0 0 0 0 0 0 0 0 0 0 0 0 0 0 0 0 0 0 0 0 0 0 0 0 0 0 0 0 0 0 0 0 0 0 0 0 0 0 0 0 0 0 0 0 0 0 0 0 0 0 0 0 0 0 0 0 0 0 0 0 0 0 0 0 0 0 0 0 0 0 0 0 0 0 0 0 0 0 0 0 0 0 0 0 0 0 0 0 0 0 0 0 0 0 0 0 0 0 0 0 0 0 0 0 0 0 0 0 0 0 0 0 0 0 0 0 0 0 0 0 0 0 0 0 0 0 0 0 0 0 0 0 0 0 0 0 8 11 9 20 25 30 34 37 34 40 40 47 54 72 76 91 94 101 106 123 124 135 143 159 175 172 188 201 216 236 241 259 265 277 289 303 314 324 335 354 362 372 393 397 408 418 458 440 449 458 468 481 496 505 519 532 545 557 569 579 592 604 618 631 645 658 674 688 706 717 735 744 762 770 783 797 808 822 828 842 855 866 877 887 898 914 929 940 953 970 973 979 982 978 975 974 960 949 944 928 918 903 885 861 846 877 860 839 818 800 779 786 771 762 762 718 764 786 809 810 815 834 864 892 905 927 942 956 966 983 1002 1020 1060 1067 1079 1089 1106 1121 1139 1163 1232 1197 1185 1182 1217 1275 1336 1452 1353 1121 1160 1115 1116 1111 1104 1123 1125 1138 1118 1147 1171 1162 1187 1198 1211 1233 1254 1285 1276 1290 1393 1257 1241 1212 1191 1182 1180 1177 1175 1185 1192 1196 1217 1242 1190 1205 1200 1195 1176 1171 1184 1139 1120 1134 1144 1163 1182 1252 1225 1239 1285 1254 1257 1271 1290 1250 1230 1253 1263 1272 1267 1294 1307 1320 1327 1336 1346 1343 1337 1333 1287 1298 1252 1234 1225 1238 1217 1194 1186 1171 1187 1184 1208 1177 1167 1170 1183 1182 1198 1209 1200 1194 1198 1187 1178 1200 1195 1208 1241 1249 1275 1271 1290 1257 1253 1265 1273 1267 1264 1274 1259 1284 1274 1287 1277 1322 1317 1312 1304 1304 1307 1340 1335 1402 1358 1350 1366 1374 1370 1379 1390 1453 1575 1636 1717 1694 1621 1639 1730 1740 1718 1681 1669 1796 1795 1847 1801 1833 1876 1856 1825 1865 1864 1851 1873 1856 1856 1847 1844 1809 1783 1792 1763 1737 1759 1732 1701 1724 1682 1687 1663 1672 1697 1693 1738 1773 1833 1824 1873 1854 1837 1856 1845 1790 1789 1787 1804 1770 1773 1784 1779 1753 1739 1735 1749 1776 1761 1753 1731 1718 1714 1715 1706 1692 1704 1684 1673 1678 1675 1667 1683 1682 1689 1675 1673 1675 1677 1680 1662 1683 1679 1681 1672 1680 1675 1681 1700 1729
0 0 0 0 0 0 0 0 0 0 0 0 0 0 0 0 0 0 0 0 0 0 0 0 0 0 0 0 0 0 0 0 0 0 0 0 0 0 0 0 0 0 0 0 0 0 0 0 0 0 0 0 0 0 0 0 0 0 0 0 0 0 0 0 0 0 0 0 0 0 0 0 0 0 0 0 0 0 0 0 0 0 0 0 0 0 0 0 0 0 0 0 0 0 0 0 0 0 0 0 0 0 0 0 0 0 0 0 0 0 0 0 0 0 0 0 0 0 0 0 0 0 0 0 0 0 0 0 0 0 0 0 0 0 0 0 0 0 0 7 12 19 20 24 29 24 39 34 37 52 57 62 75 81 87 97 114 111 123 131 139 148 163 174 189 200 217 226 245 249 261 273 286 299 311 324 336 349 361 372 385 395 401 426 442 431 440 452 464 473 487 499 512 526 534 550 560 573 584 599 611 625 637 651 666 678 697 712 725 739 749 767 778 789 813 809 826 836 853 861 870 881 893 916 932 932 938 950 959 965 962 961 959 951 941 935 923 906 896 886 864 831 816 829 795 808 799 768 740 755 732 733 713 709 755 786 800 820 843 859 868 902 925 943 953 970 984 998 1019 1034 1071 1079 1099 1116 1126 1143 1147 1168 1191 1220 1163 1190 1331 1612 1496 1420 1170 1145 1092 1096 1094 1095 1093 1106 1112 1107 1118 1138 1147 1164 1176 1187 1214 1224 1244 1266 1277 1346 1288 1306 1290 1216 1187 1167 1169 1166 1173 1174 1183 1200 1221 1227 1185 1168 1210 1190 1155 1137 1140 1145 1103 1131 1148 1166 1182 1206 1217 1221 1224 1241 1295 1252 1245 1235 1212 1238 1250 1253 1277 1286 1300 1315 1314 1323 1301 1310 1374 1262 1286 1303 1251 1222 1223 1226 1207 1191 1170 1167 1171 1175 1190 1180 1164 1162 1172 1172 1185 1183 1181 1181 1181 1182 1178 1192 1212 1241 1221 1273 1287 1312 1305 1272 1304 1265 1280 1287 1277 1290 1270 1348 1286 1263 1275 1287 1295 1307 1320 1327 1319 1311 1324 1435 1334 1356 1358 1360 1371 1380 1390 1483 1448 1583 1643 1695 1638 1688 1721 1744 1764 1763 1714 1813 1847 1859 1843 1841 1851 1792 1828 1880 1878 1889 1879 1864 1857 1846 1839 1825 1797 1780 1765 1766 1763 1724 1708 1707 1703 1706 1669 1683 1694 1696 1771 1815 1855 1829 1838 1827 1816 1804 1820 1800 1790 1770 1776 1753 1796 1783 1766 1756 1735 1737 1733 1765 1749 1746 1737 1743 1714 1715 1718 1699 1681 1700 1674 1661 1657 1659 1668 1675 1675 1671 1665 1662 1686 1658 1657 1664 1671 1675 1674 1676 1674 1675 1711 1684
0 0 0 0 0 0 0 0 0 0 0 0 0 0 0 0 0 0 0 0 0 0 0 0 0 0 0 0 0 0 0 0 0 0 0 0 0 0 0 0 0 0 0 0 0 0 0 0 0 0 0 0 0 0 0 0 0 0 0 0 0 0 0 0 0 0 0 0 0 0 0 0 0 0 0 0 0 0 0 0 0 0 0 0 0 0 0 0 0 0 0 0 0 0 0 0 0 0 0 0 0 0 0 0 0 0 0 0 0 0 0 0 0 0 0 0 0 0 0 0 0 0 0 0 0 0 0 0 0 0 0 0 0 0 0 0 0 0 0 7 9 17 18 23 26 18 27 26 40 41 50 60 69 73 89 96 103 111 125 132 141 152 165 176 186 208 211 223 235 247 258 273 280 296 307 321 333 346 363 372 377 395 391 413 427 424 434 445 455 467 482 493 506 517 530 542 552 567 578 590 604 616 630 644 658 674 691 702 715 731 741 761 771 786 789 803 820 833 840 853 861 873 894 915 912 921 931 939 949 953 952 944 943 932 921 913 904 892 871 863 866 861 781 810 775 781 769 759 743 727 694 748 752 826 781 771 801 829 851 876 891 908 936 963 970 986 1001 1013 1036 1048 1070 1093 1113 1132 1137 1149 1151 1149 1142 1134 1156 1213 1599 1602 1456 1193 1102 1081 1072 1075 1083 1083 1083 1091 1081 1096 1110 1132 1146 1167 1180 1194 1216 1222 1236 1255 1261 1275 1334 1223 1213 1204 1178 1161 1160 1153 1166 1165 1181 1212 1221 1202 1188 1177 1152 1173 1125 1117 1096 1116 1102 1128 1146 1170 1185 1186 1201 1223 1233 1219 1222 1222 1238 1230 1207 1228 1231 1250 1268 1287 1297 1306 1304 1311 1280 1273 1251 1240 1282 1266 1235 1204 1190 1242 1207 1183 1163 1146 1146 1169 1202 1165 1162 1158 1160 1179 1182 1170 1177 1170 1200 1226 1196 1203 1253 1254 1260 1315 1332 1372 1303 1290 1304 1306 1270 1285 1296 1302 1276 1299 1311 1277 1272 1291 1297 1304 1316 1332 1337 1337 1333 1334 1343 1369 1377 1369 1369 1377 1386 1403 1449 1615 1650 1634 1682 1648 1789 1722 1720 1765 1854 1778 1852 1904 1882 1853 1898 1804 1889 1920 1906 1891 1887 1882 1876 1835 1819 1797 1782 1785 1784 1768 1781 1747 1716 1722 1726 1698 1687 1696 1720 1694 1783 1854 1865 1874 1843 1818 1800 1802 1778 1787 1765 1752 1771 1773 1763 1761 1772 1793 1764 1743 1736 1711 1755 1754 1729 1724 1705 1698 1696 1692 1686 1673 1670 1663 1650 1654 1653 1663 1659 1658 1659 1652 1659 1663 1649 1656 1663 1671 1669 1667 1667 1665 1666 1662
0 0 0 0 0 0 0 0 0 0 0 0 0 0 0 0 0 0 0 0 0 0 0 0 0 0 0 0 0 0 0 0 0 0 0 0 0 0 0 0 0 0 0 0 0 0 0 0 0 0 0 0 0 0 0 0 0 0 0 0 0 0 0 0 0 0 0 0 0 0 0 0 0 0 0 0 0 0 0 0 0 0 0 0 0 0 0 0 0 0 0 0 0 0 0 0 0 0 0 0 0 0 0 0 0 0 0 0 0 0 0 0 0 0 0 0 0 0 0 0 0 0 0 0 0 0 0 0 0 0 0 0 0 0 0 0 0 0 0 0 5 8 10 17 21 20 24 23 31 37 49 57 64 69 81 89 99 109 124 135 143 152 161 170 187 198 209 218 233 247 257 269 279 295 305 318 329 341 371 363 372 375 390 403 411 418 428 437 450 465 477 488 500 510 520 534 547 558 571 581 599 612 626 641 652 667 679 698 706 718 730 744 757 771 780 799 808 820 828 845 854 873 882 894 901 911 921 932 940 934 934 926 919 914 903 897 890 874 867 835 829 808 792 811 799 718 752 679 798 873 826 820 816 801 779 774 806 828 861 889 907 927 952 967 991 1000 1017 1035 1052 1065 1081 1099 1116 1135 1143 1147 1141 1130 1123 1133 1161 1243 1616 1520 1336 1190 1131 1106 1060 1057 1066 1063 1071 1070 1090 1112 1133 1147 1160 1175 1194 1208 1225 1240 1247 1238 1234 1253 1270 1211 1188 1176 1161 1156 1145 1146 1161 1159 1183 1312 1246 1225 1181 1167 1178 1117 1094 1091 1061 1091 1111 1138 1162 1166 1166 1186 1201 1203 1200 1204 1208 1215 1216 1209 1197 1210 1232 1252 1267 1284 1290 1295 1299 1285 1286 1256 1229 1231 1257 1268 1213 1180 1211 1174 1211 1188 1184 1146 1137 1236 1162 1152 1149 1152 1177 1161 1181 1162 1162 1168 1183 1225 1199 1192 1212 1261 1271 1254 1292 1312 1299 1322 1332 1290 1287 1289 1319 1319 1284 1300 1307 1294 1278 1306 1302 1311 1314 1322 1345 1354 1341 1349 1357 1368 1371 1380 1370 1383 1393 1412 1448 1635 1562 1621 1638 1689 1745 1863 1775 1777 1820 1822 1830 1920 1914 1915 1890 1839 1916 1935 1919 1914 1889 1861 1846 1826 1801 1806 1810 1779 1793 1789 1781 1769 1729 1742 1713 1696 1702 1735 1726 1703 1795 1823 1838 1880 1832 1830 1824 1790 1775 1764 1746 1756 1743 1743 1743 1729 1765 1775 1757 1748 1744 1726 1719 1713 1742 1723 1715 1708 1703 1682 1700 1672 1663 1667 1659 1650 1650 1658 1664 1650 1646 1643 1646 1648 1644 1655 1666 1669 1671 1666 1665 1662 1659 1656
0 0 0 0 0 0 0 0 0 0 0 0 0 0 0 0 0 0 0 0 0 0 0 0 0 0 0 0 0 0 0 0 0 0 0 0 0 0 0 0 0 0 0 0 0 0 0 0 0 0 0 0 0 0 0 0 0 0 0 0 0 0 0 0 0 0 0 0 0 0 0 0 0 0 0 0 0 0 0 0 0 0 0 0 0 0 0 0 0 0 0 0 0 0 0 0 0 0 0 0 0 0 0 0 0 0 0 0 0 0 0 0 0 0 0 0 0 0 0 0 0 0 0 0 0 0 0 0 0 0 0 0 0 0 0 0 0 0 0 0 0 12 13 13 19 15 18 23 31 34 40 49 64 74 82 87 105 115 124 131 138 152 158 169 182 194 202 216 227 239 250 264 276 287 298 311 339 337 356 351 360 374 389 389 400 411 420 433 443 457 466 480 489 504 517 527 538 550 566 579 592 604 620 633 642 659 670 686 701 707 722 738 753 761 772 787 799 810 821 833 856 863 877 886 891 902 910 926 928 919 915 912 904 894 885 869 857 853 834 809 802 784 786 791 770 683 758 782 853 735 793 828 824 810 816 809 809 839 867 888 907 930 957 981 1005 1021 1033 1055 1062 1075 1086 1105 1115 1132 1141 1149 1129 1122 1116 1133 1159 1275 1696 1625 1273 1138 1281 1066 1047 1042 1059 1048 1056 1080 1103 1124 1140 1158 1175 1182 1198 1218 1243 1270 1352 1240 1213 1252 1188 1250 1170 1167 1145 1135 1130 1143 1150 1165 1222 1357 1311 1216 1178 1148 1126 1113 1077 1067 1053 1088 1111 1120 1130 1144 1188 1183 1188 1183 1182 1185 1194 1198 1197 1193 1180 1205 1234 1247 1260 1269 1273 1285 1287 1252 1241 1217 1202 1208 1214 1238 1200 1183 1162 1174 1189 1148 1144 1122 1148 1195 1167 1134 1176 1164 1146 1148 1173 1178 1189 1195 1214 1206 1222 1216 1277 1250 1242 1268 1267 1286 1308 1313 1322 1309 1303 1294 1302 1315 1298 1310 1314 1293 1303 1294 1312 1320 1317 1354 1369 1357 1355 1366 1361 1377 1377 1385 1378 1394 1395 1406 1461 1680 1666 1648 1658 1684 1752 1800 1767 1773 1809 1879 1901 1942 1933 1922 1912 1892 1928 1933 1923 1905 1869 1860 1851 1829 1825 1827 1795 1804 1804 1794 1792 1797 1764 1765 1733 1718 1722 1717 1730 1782 1796 1813 1831 1863 1869 1861 1850 1809 1822 1793 1774 1756 1743 1741 1727 1720 1729 1745 1739 1749 1722 1725 1699 1691 1700 1703 1700 1718 1711 1704 1683 1671 1666 1658 1654 1650 1643 1647 1653 1657 1657 1643 1635 1632 1643 1645 1651 1658 1663 1663 1663 1660 1659 1655
0 0 0 0 0 0 0 0 0 0 0 0 0 0 0 0 0 0 0 0 0 0 0 0 0 0 0 0 0 0 0 0 0 0 0 0 0 0 0 0 0 0 0 0 0 0 0 0 0 0 0 0 0 0 0 0 0 0 0 0 0 0 0 0 0 0 0 0 0 0 0 0 0 0 0 0 0 0 0 0 0 0 0 0 0 0 0 0 0 0 0 0 0 0 0 0 0 0 0 0 0 0 0 0 0 0 0 0 0 0 0 0 0 0 0 0 0 0 0 0 0 0 0 0 0 0 0 0 0 0 0 0 0 0 0 0 0 0 0 0 0 5 15 14 13 17 14 18 28 32 41 53 60 70 82 93 100 111 120 128 138 147 159 168 179 189 200 210 225 234 245 256 274 275 293 301 312 327 336 347 353 369 370 385 393 404 413 428 437 448 460 473 483 495 506 518 530 542 559 573 586 599 611 622 636 653 665 675 684 702 717 728 739 748 766 780 791 818 814 833 839 856 863 875 887 894 907 917 914 906 897 888 881 870 860 844 835 834 824 799 766 742 728 769 666 754 860 1001 854 809 807 849 853 847 839 842 845 839 868 898 918 938 955 980 999 1037 1045 1064 1079 1091 1104 1106 1120 1127 1142 1137 1127 1111 1095 1114 1204 1342 1497 1391 1293 1136 1151 1059 1035 1049 1032 1047 1068 1088 1106 1125 1141 1160 1176 1193 1205 1222 1252 1392 1420 1219 1193 1187 1166 1149 1149 1139 1134 1120 1117 1135 1143 1144 1177 1448 1318 1236 1166 1142 1111 1087 1065 1040 1077 1099 1094 1110 1121 1147 1162 1170 1180 1166 1166 1178 1183 1179 1181 1171 1185 1218 1221 1232 1244 1255 1262 1273 1271 1281 1205 1224 1243 1182 1258 1274 1175 1164 1152 1154 1137 1102 1114 1107 1165 1159 1130 1174 1143 1134 1147 1155 1187 1164 1211 1212 1241 1238 1220 1233 1247 1246 1270 1267 1267 1289 1318 1317 1333 1329 1435 1316 1299 1330 1322 1315 1332 1321 1288 1301 1325 1341 1367 1344 1346 1404 1386 1366 1377 1423 1543 1396 1386 1386 1400 1414 1517 1592 1758 1726 1765 1848 1908 1792 1761 1796 1804 1798 1842 1894 1943 1966 1912 1923 1945 1938 1921 1888 1887 1857 1869 1846 1853 1816 1821 1828 1814 1806 1803 1800 1781 1750 1744 1736 1733 1739 1721 1812 1838 1829 1848 1846 1865 1897 1877 1832 1835 1792 1780 1764 1768 1768 1715 1709 1727 1730 1728 1717 1735 1722 1702 1703 1684 1697 1690 1697 1689 1707 1687 1675 1670 1661 1656 1654 1642 1646 1645 1640 1643 1647 1638 1630 1634 1643 1653 1653 1654 1652 1668 1665 1659 1657
0 0 0 0 0 0 0 0 0 0 0 0 0 0 0 0 0 0 0 0 0 0 0 0 0 0 0 0 0 0 0 0 0 0 0 0 0 0 0 0 0 0 0 0 0 0 0 0 0 0 0 0 0 0 0 0 0 0 0 0 0 0 0 0 0 0 0 0 0 0 0 0 0 0 0 0 0 0 0 0 0 0 0 0 0 0 0 0 0 0 0 0 0 0 0 0 0 0 0 0 0 0 0 0 0 0 0 0 0 0 0 0 0 0 0 0 0 0 0 0 0 0 0 0 0 0 0 0 0 0 0 0 0 0 0 0 0 0 0 0 0 0 6 12 10 7 12 14 23 29 40 46 56 64 74 83 95 103 111 124 132 146 152 163 175 181 195 208 220 231 240 259 267 277 285 289 305 319 326 335 345 354 369 375 382 394 406 416 428 438 450 462 473 488 501 511 523 537 553 567 576 588 598 612 628 643 655 666 676 694 710 723 726 738 756 772 788 794 805 817 829 847 856 866 878 886 893 904 899 890 880 870 863 858 835 822 808 802 819 808 784 764 689 761 707 781 957 965 866 825 806 881 865 873 869 873 904 858 876 897 918 940 971 992 1015 1079 1070 1078 1088 1095 1112 1123 1126 1134 1137 1135 1120 1105 1088 1079 1126 1364 1488 1348 1344 1155 1112 1021 1002 1026 1048 1056 1068 1082 1101 1121 1138 1149 1164 1183 1201 1220 1254 1314 1238 1200 1169 1172 1149 1125 1127 1116 1110 1098 1103 1119 1124 1136 1153 1184 1222 1204 1161 1127 1095 1063 1043 1028 1053 1075 1105 1115 1130 1148 1171 1194 1165 1151 1147 1154 1162 1164 1155 1153 1176 1200 1210 1221 1230 1250 1252 1274 1255 1262 1224 1180 1284 1152 1205 1179 1150 1167 1132 1112 1111 1097 1118 1153 1166 1156 1130 1128 1128 1139 1168 1156 1147 1161 1171 1254 1273 1233 1231 1217 1230 1255 1263 1273 1299 1280 1333 1338 1366 1348 1332 1321 1328 1326 1344 1325 1344 1353 1312 1295 1332 1318 1379 1342 1402 1535 1476 1400 1380 1427 1426 1403 1395 1395 1393 1409 1487 1737 1921 1748 1729 1792 1892 1781 1769 1791 1773 1850 1862 1919 1887 1941 1916 1955 1958 1933 1908 1901 1890 1861 1877 1874 1876 1844 1832 1828 1824 1806 1813 1821 1782 1758 1750 1756 1767 1745 1743 1797 1843 1820 1831 1856 1847 1880 1808 1822 1796 1781 1803 1757 1753 1743 1727 1706 1717 1735 1707 1706 1713 1708 1707 1707 1691 1671 1676 1678 1692 1683 1682 1684 1669 1662 1653 1646 1642 1634 1635 1641 1636 1632 1637 1620 1623 1630 1633 1639 1641 1645 1673 1668 1666 1651
0 0 0 0 0 0 0 0 0 0 0 0 0 0 0 0 0 0 0 0 0 0 0 0 0 0 0 0 0 0 0 0 0 0 0 0 0 0 0 0 0 0 0 0 0 0 0 0 0 0 0 0 0 0 0 0 0 0 0 0 0 0 0 0 0 0 0 0 0 0 0 0 0 0 0 0 0 0 0 0 0 0 0 0 0 0 0 0 0 0 0 0 0 0 0 0 0 0 0 0 0 0 0 0 0 0 0 0 0 0 0 0 0 0 0 0 0 0 0 0 0 0 0 0 0 0 0 0 0 0 0 0 0 0 0 0 0 0 0 0 0 0 0 4 4 5 9 15 21 32 38 41 51 58 69 82 90 102 110 119 130 141 151 157 165 179 191 204 213 222 234 254 259 265 273 282 298 306 316 330 339 347 356 365 376 385 397 406 421 434 443 456 469 479 491 502 515 528 542 561 569 580 592 608 625 631 643 652 670 690 698 711 727 737 752 759 778 783 798 814 843 840 849 858 868 879 885 893 889 874 861 850 846 837 846 814 789 775 796 790 773 729 718 643 801 805 1019 901 873 859 848 871 894 903 888 965 967 877 891 908 925 951 976 1006 1068 1101 1097 1103 1101 1099 1116 1120 1130 1143 1152 1146 1116 1098 1217 1070 1094 1231 1110 1310 1232 1093 1009 996 995 1012 1030 1043 1054 1074 1092 1110 1117 1138 1157 1176 1194 1212 1248 1293 1208 1162 1147 1128 1131 1117 1100 1104 1081 1076 1091 1121 1113 1128 1143 1170 1214 1262 1173 1116 1072 1047 1048 1055 1058 1141 1161 1161 1170 1161 1147 1144 1138 1134 1133 1136 1140 1143 1140 1152 1159 1188 1194 1214 1236 1260 1236 1250 1248 1260 1230 1162 1169 1143 1217 1159 1132 1120 1109 1091 1087 1091 1154 1227 1183 1181 1156 1140 1148 1161 1184 1196 1162 1180 1169 1179 1200 1213 1240 1231 1229 1273 1290 1278 1314 1293 1320 1339 1339 1350 1352 1328 1353 1344 1330 1353 1348 1385 1329 1360 1298 1341 1440 1370 1389 1457 1573 1455 1443 1395 1413 1407 1411 1404 1395 1409 1480 1753 1772 1750 1751 1760 1762 1767 1755 1744 1789 1807 1863 1872 1923 1958 1960 1978 1948 1927 1928 1919 1891 1886 1897 1892 1861 1838 1860 1837 1837 1825 1815 1823 1803 1791 1796 1783 1764 1761 1773 1813 1841 1862 1857 1844 1818 1818 1781 1816 1823 1780 1768 1745 1731 1725 1717 1710 1701 1706 1702 1687 1711 1703 1691 1687 1695 1683 1678 1676 1680 1677 1674 1671 1672 1663 1662 1657 1652 1637 1633 1628 1630 1626 1625 1624 1612 1615 1623 1635 1633 1643 1651 1657 1644 1646
0 0 0 0 0 0 0 0 0 0 0 0 0 0 0 0 0 0 0 0 0 0 0 0 0 0 0 0 0 0 0 0 0 0 0 0 0 0 0 0 0 0 0 0 0 0 0 0 0 0 0 0 0 0 0 0 0 0 0 0 0 0 0 0 0 0 0 0 0 0 0 0 0 0 0 0 0 0 0 0 0 0 0 0 0 0 0 0 0 0 0 0 0 0 0 0 0 0 0 0 0 0 0 0 0 0 0 0 0 0 0 0 0 0 0 0 0 0 0 0 0 0 0 0 0 0 0 0 0 0 0 0 0 0 0 0 0 0 0 0 0 0 0 0 5 9 13 22 26 33 38 39 41 55 63 76 86 98 106 114 122 133 140 151 161 173 187 195 206 213 241 242 248 264 271 281 292 305 314 320 330 340 351 358 367 379 389 402 413 423 435 449 459 472 492 497 507 520 535 548 559 568 583 599 607 624 634 650 667 679 696 702 716 733 748 754 765 778 792 813 821 827 841 850 860 876 886 882 869 858 847 827 814 809 796 794 766 772 771 764 759 756 730 639 758 811 972 894 863 852 857 877 901 910 932 948 918 908 889 918 933 949 1030 1049 1256 1131 1114 1128 1123 1116 1116 1124 1122 1128 1223 1424 1230 1106 1067 1064 1052 1056 1064 1098 1015 1015 985 945 978 993 1004 1025 1043 1063 1079 1087 1113 1132 1146 1164 1172 1261 1263 1278 1167 1132 1124 1114 1099 1098 1092 1079 1060 1066 1091 1095 1104 1113 1129 1151 1150 1187 1166 1156 1105 1087 1047 1045 1131 1125 1088 1091 1101 1115 1128 1123 1121 1118 1109 1120 1125 1126 1123 1125 1147 1173 1178 1192 1217 1212 1218 1227 1255 1276 1347 1186 1133 1183 1145 1115 1126 1093 1083 1076 1096 1118 1131 1210 1209 1168 1167 1198 1228 1222 1202 1300 1172 1183 1185 1239 1230 1342 1308 1265 1233 1273 1269 1292 1296 1322 1301 1316 1352 1361 1367 1367 1351 1354 1349 1367 1379 1435 1389 1367 1301 1362 1359 1493 1383 1555 1402 1411 1425 1422 1427 1425 1428 1418 1406 1404 1488 1756 1804 1744 1728 1731 1733 1746 1782 1768 1808 1866 1842 1874 1888 1919 1972 1955 1946 1957 1953 1930 1920 1904 1891 1889 1876 1852 1861 1836 1858 1832 1828 1814 1803 1786 1780 1783 1764 1765 1819 1870 1847 1875 1892 1865 1817 1792 1774 1775 1770 1762 1754 1756 1728 1713 1715 1706 1689 1692 1691 1698 1695 1687 1678 1683 1689 1683 1667 1667 1684 1681 1669 1661 1667 1658 1659 1670 1658 1647 1639 1633 1627 1623 1617 1623 1619 1614 1616 1624 1624 1636 1634 1643 1637 1647
0 0 0 0 0 0 0 0 0 0 0 0 0 0 0 0 0 0 0 0 0 0 0 0 0 0 0 0 0 0 0 0 0 0 0 0 0 0 0 0 0 0 0 0 0 0 0 0 0 0 0 0 0 0 0 0 0 0 0 0 0 0 0 0 0 0 0 0 0 0 0 0 0 0 0 0 0 0 0 0 0 0 0 0 0 0 0 0 0 0 0 0 0 0 0 0 0 0 0 0 0 0 0 0 0 0 0 0 0 0 0 0 0 0 0 0 0 0 0 0 0 0 0 0 0 0 0 0 0 0 0 0 0 0 0 0 0 0 0 0 0 0 0 0 0 4 11 13 22 25 27 36 45 56 64 79 84 96 99 107 118 126 133 144 160 172 180 188 197 209 228 233 246 254 267 280 287 298 305 314 326 337 340 351 361 372 379 393 404 417 429 438 451 467 480 488 497 513 526 539 548 561 577 587 604 616 630 642 657 669 683 697 708 730 734 750 763 772 787 803 810 830 831 845 858 870 871 858 852 839 825 812 799 785 782 762 764 754 733 747 735 741 630 725 763 843 846 835 851 872 886 902 920 917 955 946 924 916 918 920 952 974 977 1083 1232 1117 1133 1141 1137 1126 1112 1116 1116 1107 1199 1129 1140 1070 1051 1039 1017 1021 1005 996 979 965 930 926 951 968 983 1009 1036 1052 1057 1075 1102 1118 1138 1142 1150 1216 1161 1124 1112 1109 1110 1108 1084 1078 1077 1047 1047 1066 1075 1075 1093 1123 1145 1158 1125 1154 1182 1134 1118 1064 1084 1041 1054 1040 1054 1073 1100 1108 1110 1114 1107 1096 1092 1099 1099 1123 1107 1120 1142 1161 1170 1210 1192 1200 1216 1253 1289 1427 1262 1257 1123 1148 1147 1111 1105 1070 1077 1111 1118 1160 1158 1176 1231 1205 1166 1250 1272 1302 1226 1232 1239 1207 1358 1234 1328 1235 1350 1266 1241 1254 1275 1302 1325 1315 1329 1324 1342 1355 1376 1370 1401 1378 1374 1370 1392 1582 1486 1459 1314 1317 1341 1393 1367 1370 1378 1399 1404 1407 1431 1435 1440 1430 1418 1405 1417 1625 1671 1822 1708 1739 1725 1776 1729 1819 1782 1829 1876 1907 1934 1948 1970 1939 1921 1928 1947 1925 1908 1880 1878 1875 1860 1839 1850 1858 1862 1846 1848 1831 1790 1783 1774 1780 1764 1780 1823 1850 1832 1860 1868 1792 1776 1781 1760 1755 1757 1772 1754 1741 1730 1716 1717 1719 1694 1684 1683 1685 1687 1682 1674 1671 1684 1667 1663 1668 1678 1669 1668 1661 1651 1652 1643 1654 1653 1661 1648 1640 1633 1625 1623 1629 1638 1613 1616 1615 1619 1639 1630 1630 1630 1637
0 0 0 0 0 0 0 0 0 0 0 0 0 0 0 0 0 0 0 0 0 0 0 0 0 0 0 0 0 0 0 0 0 0 0 0 0 0 0 0 0 0 0 0 0 0 0 0 0 0 0 0 0 0 0 0 0 0 0 0 0 0 0 0 0 0 0 0 0 0 0 0 0 0 0 0 0 0 0 0 0 0 0 0 0 0 0 0 0 0 0 0 0 0 0 0 0 0 0 0 0 0 0 0 0 0 0 0 0 0 0 0 0 0 0 0 0 0 0 0 0 0 0 0 0 0 0 0 0 0 0 0 0 0 0 0 0 0 0 0 0 0 0 0 0 0 7 5 11 18 23 32 41 55 64 75 79 86 92 102 112 123 137 146 158 165 180 189 195 209 216 229 240 251 261 269 279 294 304 313 316 323 332 342 353 364 374 389 402 411 420 431 442 453 465 473 492 506 516 530 541 556 568 580 595 609 625 637 651 664 678 695 707 721 733 742 752 763 777 790 797 813 829 839 850 858 856 847 832 821 811 802 773 757 766 750 771 738 708 752 725 668 620 708 739 848 826 882 847 873 884 904 921 936 947 936 930 932 944 953 963 981 998 1273 1082 1116 1286 1156 1151 1119 1100 1118 1141 1225 1145 1078 1066 1052 1038 1015 1004 1010 990 970 970 965 927 924 926 951 968 993 1017 1037 1048 1072 1091 1107 1116 1116 1120 1232 1109 1093 1084 1085 1097 1083 1077 1059 1052 1044 1027 1053 1054 1080 1116 1130 1180 1169 1130 1133 1156 1110 1074 1037 1010 1001 1027 1050 1062 1078 1095 1097 1097 1095 1088 1078 1078 1076 1085 1083 1085 1106 1130 1144 1168 1194 1180 1186 1234 1369 1429 1310 1228 1164 1084 1094 1084 1077 1089 1065 1085 1142 1159 1186 1210 1267 1183 1209 1192 1203 1221 1232 1248 1303 1210 1210 1251 1302 1351 1264 1275 1271 1251 1258 1293 1317 1327 1340 1341 1328 1357 1510 1435 1392 1489 1418 1438 1539 1475 1548 1666 1605 1363 1323 1330 1356 1372 1370 1376 1387 1396 1411 1424 1444 1443 1446 1425 1418 1415 1435 1650 1672 1731 1680 1828 1756 1701 1737 1799 1805 1821 1920 1939 1962 1940 1938 1914 1929 1931 1895 1885 1879 1868 1878 1859 1831 1846 1858 1852 1855 1849 1801 1796 1770 1765 1762 1768 1795 1798 1828 1842 1823 1788 1784 1762 1771 1764 1763 1746 1755 1756 1733 1727 1718 1714 1700 1705 1689 1682 1670 1675 1683 1676 1658 1664 1660 1657 1672 1665 1667 1654 1663 1649 1641 1639 1643 1641 1646 1644 1641 1647 1635 1633 1625 1621 1619 1602 1607 1609 1625 1628 1617 1633 1632
0 0 0 0 0 0 0 0 0 0 0 0 0 0 0 0 0 0 0 0 0 0 0 0 0 0 0 0 0 0 0 0 0 0 0 0 0 0 0 0 0 0 0 0 0 0 0 0 0 0 0 0 0 0 0 0 0 0 0 0 0 0 0 0 0 0 0 0 0 0 0 0 0 0 0 0 0 0 0 0 0 0 0 0 0 0 0 0 0 0 0 0 0 0 0 0 0 0 0 0 0 0 0 0 0 0 0 0 0 0 0 0 0 0 0 0 0 0 0 0 0 0 0 0 0 0 0 0 0 0 0 0 0 0 0 0 0 0 0 0 0 0 0 0 0 0 0 7 21 14 21 29 40 50 62 67 73 85 88 99 111 120 131 141 152 162 173 188 198 205 214 224 233 247 252 265 283 282 298 301 308 316 327 337 349 361 367 380 388 401 408 420 433 447 458 479 484 499 509 521 535 548 561 578 591 604 617 634 643 657 677 684 699 713 733 734 743 756 777 780 796 809 819 832 847 841 842 833 820 805 789 798 772 742 747 700 781 652 699 705 603 612 704 715 748 791 885 862 856 875 885 914 927 936 950 937 947 951 959 970 980 999 1016 1026 1070 1155 1449 1290 1332 1140 1094 1255 1093 1076 1078 1059 1041 1038 1023 1003 999 987 974 946 947 941 927 973 1025 952 956 1006 1001 1012 1039 1058 1079 1099 1092 1114 1091 1076 1055 1068 1059 1057 1075 1065 1064 1055 1028 1027 1037 1029 1051 1084 1118 1176 1230 1216 1094 1074 1056 1042 1022 1016 989 999 1033 1050 1068 1087 1085 1074 1070 1067 1065 1061 1057 1056 1056 1074 1082 1092 1110 1125 1140 1173 1166 1202 1440 1464 1390 1146 1325 1083 1060 1060 1051 1045 1071 1070 1080 1133 1146 1168 1186 1218 1202 1230 1215 1219 1209 1235 1253 1243 1236 1216 1372 1342 1366 1304 1288 1275 1277 1300 1306 1319 1335 1329 1433 1370 1392 1406 1592 1630 1437 1477 1676 1442 1726 1457 1541 1605 1361 1318 1331 1346 1368 1383 1385 1393 1398 1413 1424 1444 1445 1444 1452 1442 1427 1426 1631 1701 1695 1700 1644 1867 1753 1721 1736 1805 1839 1906 1987 1973 1951 1945 1914 1901 1910 1892 1871 1857 1849 1873 1847 1820 1859 1840 1836 1842 1818 1783 1774 1765 1761 1756 1765 1780 1817 1783 1801 1818 1782 1783 1765 1745 1753 1736 1738 1750 1744 1747 1728 1724 1700 1704 1701 1694 1680 1666 1667 1662 1663 1661 1645 1650 1655 1672 1657 1647 1644 1653 1647 1641 1636 1630 1635 1634 1635 1635 1642 1635 1622 1612 1613 1617 1603 1604 1610 1617 1615 1612 1620 1624
0 0 0 0 0 0 0 0 0 0 0 0 0 0 0 0 0 0 0 0 0 0 0 0 0 0 0 0 0 0 0 0 0 0 0 0 0 0 0 0 0 0 0 0 0 0 0 0 0 0 0 0 0 0 0 0 0 0 0 0 0 0 0 0 0 0 0 0 0 0 0 0 0 0 0 0 0 0 0 0 0 0 0 0 0 0 0 0 0 0 0 0 0 0 0 0 0 0 0 0 0 0 0 0 0 0 0 0 0 0 0 0 0 0 0 0 0 0 0 0 0 0 0 0 0 0 0 0 0 0 0 0 0 0 0 0 0 0 0 0 0 0 0 0 0 0 0 0 6 16 18 25 37 44 52 62 71 80 89 97 110 119 130 138 147 161 173 180 188 198 208 218 229 247 255 257 265 279 288 294 305 311 322 330 339 348 360 371 382 393 402 416 429 440 453 465 478 492 504 517 529 542 555 570 581 595 609 630 636 654 666 681 695 710 719 726 735 751 757 776 787 803 819 826 836 828 819 817 808 794 764 746 743 721 684 638 663 636 655 638 670 688 728 733 763 824 910 860 880 897 908 915 936 939 956 957 958 966 980 1009 1002 1030 1033 1047 1094 1392 1407 1518 1421 1113 1071 1059 1057 1061 1062 1052 1040 1014 1011 978 971 950 942 919 913 904 896 891 956 948 944 971 989 1009 1031 1051 1100 1192 1073 1057 1065 1059 1035 1036 1027 1034 1063 1045 1043 1038 1015 1010 1015 1027 1052 1101 1139 1266 1248 1117 1091 1045 1041 1028 1006 991 984 1004 1035 1048 1074 1078 1070 1063 1056 1048 1042 1032 1034 1033 1035 1050 1067 1076 1099 1109 1140 1186 1152 1346 1507 1297 1100 1164 1348 1044 1049 1055 1047 1088 1054 1063 1082 1130 1149 1163 1181 1210 1224 1251 1219 1224 1237 1243 1252 1248 1263 1268 1314 1336 1315 1328 1297 1289 1288 1302 1308 1289 1362 1371 1438 1411 1367 1420 1589 1632 1648 1505 1479 1479 1524 1436 1396 1406 1415 1342 1374 1368 1351 1379 1372 1383 1382 1412 1404 1422 1443 1454 1458 1459 1435 1427 1444 1689 1807 1623 1620 1633 1711 1715 1773 1769 1854 1873 1904 1981 1975 1947 1922 1914 1902 1882 1853 1841 1825 1853 1832 1820 1840 1841 1831 1839 1814 1783 1771 1760 1759 1753 1764 1795 1813 1770 1758 1791 1765 1773 1779 1763 1752 1739 1732 1732 1728 1749 1732 1721 1708 1694 1685 1678 1670 1662 1666 1655 1644 1657 1642 1657 1657 1664 1658 1641 1635 1641 1650 1641 1634 1628 1623 1632 1630 1627 1629 1623 1618 1612 1605 1600 1600 1595 1604 1614 1613 1605 1606 1611
0 0 0 0 0 0 0 0 0 0 0 0 0 0 0 0 0 0 0 0 0 0 0 0 0 0 0 0 0 0 0 0 0 0 0 0 0 0 0 0 0 0 0 0 0 0 0 0 0 0 0 0 0 0 0 0 0 0 0 0 0 0 0 0 0 0 0 0 0 0 0 0 0 0 0 0 0 0 0 0 0 0 0 0 0 0 0 0 0 0 0 0 0 0 0 0 0 0 0 0 0 0 0 0 0 0 0 0 0 0 0 0 0 0 0 0 0 0 0 0 0 0 0 0 0 0 0 0 0 0 0 0 0 0 0 0 0 0 0 0 0 0 0 0 0 0 0 0 0 9 19 27 34 43 51 58 68 76 86 96 107 117 125 141 152 161 168 178 186 195 209 220 226 235 241 253 261 267 285 291 297 306 316 322 332 342 354 364 375 385 399 414 422 436 448 463 474 486 498 511 522 535 548 562 577 591 611 623 634 647 659 677 687 702 703 711 736 752 755 766 784 794 809 823 823 819 800 799 788 791 779 729 719 701 652 653 692 749 665 656 663 702 738 761 765 952 870 887 891 906 918 922 935 944 961 960 963 970 991 1004 1014 1047 1095 1237 1325 1337 1601 1367 1192 1058 1055 1046 1040 1047 1043 1035 1024 1006 981 975 948 948 924 931 895 866 846 863 894 912 958 963 977 1035 1043 1040 1060 1052 1047 1036 1034 1021 1010 1005 1004 1087 1032 1015 1017 1022 1003 981 1022 1061 1069 1089 1122 1145 1122 1103 1076 1051 1031 1007 996 976 970 1000 1027 1049 1060 1057 1054 1048 1039 1029 1018 1012 1012 1012 1025 1030 1045 1073 1079 1089 1112 1159 1181 1509 1302 1227 1103 1152 1121 1029 1038 1036 1047 1066 1102 1096 1091 1109 1123 1163 1222 1221 1352 1258 1235 1245 1235 1254 1277 1263 1266 1285 1281 1339 1438 1328 1331 1309 1321 1333 1316 1306 1326 1426 1389 1404 1388 1445 1556 1582 1647 1572 1556 1536 1457 1445 1443 1450 1569 1374 1375 1328 1339 1365 1376 1370 1374 1394 1394 1407 1446 1452 1457 1459 1443 1436 1445 1581 1807 1527 1594 1714 1793 1762 1752 1763 1827 1912 1997 1977 1973 1954 1944 1918 1902 1884 1885 1870 1817 1841 1832 1823 1845 1832 1818 1819 1792 1782 1768 1756 1752 1746 1773 1798 1812 1784 1747 1746 1755 1758 1753 1774 1744 1750 1735 1719 1720 1726 1725 1723 1723 1707 1692 1677 1678 1671 1666 1662 1649 1645 1637 1646 1652 1652 1646 1634 1629 1633 1633 1634 1624 1620 1617 1622 1621 1623 1620 1617 1607 1615 1608 1600 1598 1592 1597 1603 1602 1596 1610 1605
0 0 0 0 0 0 0 0 0 0 0 0 0 0 0 0 0 0 0 0 0 0 0 0 0 0 0 0 0 0 0 0 0 0 0 0 0 0 0 0 0 0 0 0 0 0 0 0 0 0 0 0 0 0 0 0 0 0 0 0 0 0 0 0 0 0 0 0 0 0 0 0 0 0 0 0 0 0 0 0 0 0 0 0 0 0 0 0 0 0 0 0 0 0 0 0 0 0 0 0 0 0 0 0 0 0 0 0 0 0 0 0 0 0 0 0 0 0 0 0 0 0 0 0 0 0 0 0 0 0 0 0 0 0 0 0 0 0 0 0 0 0 0 0 0 0 0 0 0 7 16 23 31 39 47 55 64 74 82 94 103 115 125 139 147 158 160 172 182 191 200 211 219 232 241 250 255 278 278 290 290 299 309 319 330 339 349 358 369 380 394 407 419 431 442 457 468 485 494 502 516 532 545 557 583 589 602 614 627 635 654 676 679 687 694 713 732 730 745 759 780 792 804 812 809 805 793 792 775 760 767 719 691 708 650 593 703 689 655 704 704 707 709 879 842 841 864 889 907 914 926 934 940 952 955 964 975 992 1004 1078 1045 1255 1194 1283 1340 1464 1471 1205 1114 1054 1031 1028 1028 1029 1031 1020 1008 997 980 959 940 917 911 905 889 873 894 900 921 930 928 944 978 988 1007 1040 1013 1015 1017 1015 1002 1001 987 983 1045 1020 990 1005 997 1001 1002 972 1042 1097 1100 1075 1097 1095 1096 1081 1066 1044 1022 1001 978 964 1043 1013 1028 1039 1040 1037 1039 1030 1015 1005 998 991 993 998 998 1014 1028 1055 1060 1069 1099 1182 1172 1291 1378 1129 1106 1029 1029 1031 1028 1054 1058 1124 1104 1096 1086 1091 1111 1160 1163 1303 1267 1258 1253 1266 1266 1252 1267 1286 1285 1313 1315 1351 1366 1348 1326 1306 1324 1342 1339 1444 1370 1365 1398 1431 1390 1458 1600 1549 1613 1521 1520 1544 1477 1498 1458 1508 1432 1441 1529 1384 1342 1352 1353 1361 1370 1393 1382 1402 1437 1454 1462 1467 1453 1448 1442 1477 1593 1625 1641 1624 1758 1763 1738 1796 1821 1909 1976 1990 1978 1966 1956 1936 1922 1911 1902 1869 1817 1828 1827 1814 1811 1816 1802 1804 1775 1777 1768 1758 1744 1741 1764 1765 1792 1765 1726 1736 1755 1744 1743 1722 1733 1729 1737 1726 1712 1719 1710 1718 1716 1700 1690 1689 1691 1671 1668 1666 1653 1648 1636 1644 1638 1643 1634 1631 1619 1623 1630 1627 1624 1622 1616 1614 1623 1616 1618 1610 1607 1611 1604 1594 1592 1586 1595 1589 1595 1592 1599 1598
0 0 0 0 0 0 0 0 0 0 0 0 0 0 0 0 0 0 0 0 0 0 0 0 0 0 0 0 0 0 0 0 0 0 0 0 0 0 0 0 0 0 0 0 0 0 0 0 0 0 0 0 0 0 0 0 0 0 0 0 0 0 0 0 0 0 0 0 0 0 0 0 0 0 0 0 0 0 0 0 0 0 0 0 0 0 0 0 0 0 0 0 0 0 0 0 0 0 0 0 0 0 0 0 0 0 0 0 0 0 0 0 0 0 0 0 0 0 0 0 0 0 0 0 0 0 0 0 0 0 0 0 0 0 0 0 0 0 0 0 0 0 0 0 0 0 0 0 0 0 10 21 29 36 43 51 63 70 85 90 103 111 124 133 138 153 164 169 177 187 198 208 220 227 233 240 248 257 272 281 286 295 310 318 324 335 348 356 368 379 391 404 415 426 439 453 463 473 486 496 512 528 538 551 578 579 596 608 623 644 660 658 673 676 685 702 713 728 742 760 776 786 801 786 787 782 775 756 761 717 728 716 694 655 553 731 707 731 717 738 713 734 748 839 859 859 878 902 911 920 928 932 943 953 974 978 987 1036 1132 1137 1116 1115 1319 1321 1462 1431 1191 1091 1043 1018 1015 1011 1013 1015 1018 1006 997 982 962 943 923 909 892 891 873 860 909 925 917 912 910 920 948 974 985 990 995 990 996 990 985 969 959 974 964 958 974 967 993 1000 957 1115 1046 1101 1047 1052 1063 1068 1074 1060 1052 1035 1019 1005 984 959 970 990 1015 1028 1027 1016 1015 1012 996 986 973 963 962 973 980 1000 1013 1029 1035 1044 1079 1087 1113 1220 1242 1122 1126 1019 1146 1065 1093 1050 1073 1085 1111 1105 1100 1115 1131 1180 1203 1208 1311 1279 1264 1284 1275 1283 1304 1308 1302 1306 1318 1364 1366 1334 1315 1313 1342 1327 1377 1397 1356 1482 1371 1435 1388 1576 1644 1597 1645 1597 1616 1510 1481 1574 1566 1535 1484 1474 1436 1460 1394 1356 1357 1358 1371 1372 1398 1409 1419 1449 1450 1463 1459 1455 1444 1457 1525 1767 1671 1639 1763 1788 1750 1830 1839 1920 1959 2004 1987 1957 1939 1921 1916 1898 1894 1875 1829 1807 1813 1818 1810 1801 1809 1795 1779 1764 1755 1749 1743 1739 1752 1751 1766 1771 1723 1726 1736 1757 1746 1712 1699 1717 1716 1736 1718 1708 1694 1711 1692 1703 1690 1675 1680 1669 1657 1663 1663 1649 1637 1633 1632 1637 1626 1622 1621 1613 1623 1626 1617 1614 1610 1610 1609 1607 1603 1603 1603 1598 1599 1597 1590 1589 1586 1586 1585 1588 1589 1591
0 0 0 0 0 0 0 0 0 0 0 0 0 0 0 0 0 0 0 0 0 0 0 0 0 0 0 0 0 0 0 0 0 0 0 0 0 0 0 0 0 0 0 0 0 0 0 0 0 0 0 0 0 0 0 0 0 0 0 0 0 0 0 0 0 0 0 0 0 0 0 0 0 0 0 0 0 0 0 0 0 0 0 0 0 0 0 0 0 0 0 0 0 0 0 0 0 0 0 0 0 0 0 0 0 0 0 0 0 0 0 0 0 0 0 0 0 0 0 0 0 0 0 0 0 0 0 0 0 0 0 0 0 0 0 0 0 0 0 0 0 0 0 0 0 0 0 0 0 0 11 17 24 33 42 54 63 70 81 91 99 115 131 129 140 151 167 168 175 178 190 195 216 219 234 233 242 251 262 272 283 295 305 317 319 335 342 356 366 375 387 396 411 421 434 448 458 470 482 495 510 522 534 555 565 577 596 603 625 644 648 658 672 680 689 696 708 737 743 759 770 779 777 778 768 764 752 739 710 691 699 674 616 570 746 695 731 718 737 709 716 737 880 857 843 860 872 895 909 919 920 930 940 959 998 1020 1058 1089 1126 1133 1275 1219 1432 1550 1410 1158 1057 1027 995 997 995 996 995 997 1000 1002 984 969 949 928 908 894 887 865 855 865 864 872 895 888 891 918 936 954 965 971 970 963 968 965 956 944 932 944 940 934 942 951 910 1028 1059 993 991 1003 1003 1029 1035 1039 1048 1041 1032 1025 1008 993 970 945 954 974 1000 1011 1010 998 996 988 973 960 950 938 939 953 965 983 992 1008 1010 1014 1038 1064 1083 1154 1133 1087 1007 1001 1070 1113 1082 1081 1096 1151 1149 1177 1153 1132 1202 1221 1182 1223 1279 1284 1303 1303 1303 1307 1281 1320 1313 1317 1339 1356 1371 1361 1330 1318 1334 1360 1371 1443 1394 1535 1464 1477 1405 1517 1557 1597 1688 1622 1576 1549 1528 1537 1582 1592 1601 1584 1586 1452 1530 1391 1363 1362 1366 1372 1380 1388 1409 1441 1443 1449 1465 1460 1456 1457 1470 1746 1688 1723 1725 1774 1824 1896 1838 1893 1970 2010 1984 1940 1917 1914 1890 1877 1883 1843 1839 1852 1810 1793 1790 1804 1800 1792 1786 1774 1753 1753 1742 1742 1734 1761 1723 1732 1732 1719 1720 1748 1728 1727 1693 1694 1698 1703 1707 1718 1688 1698 1687 1693 1684 1667 1664 1665 1651 1655 1668 1660 1645 1628 1625 1627 1621 1614 1614 1611 1608 1606 1611 1610 1607 1604 1604 1603 1608 1602 1597 1593 1589 1591 1585 1582 1582 1580 1581 1581 1591 1580
0 0 0 0 0 0 0 0 0 0 0 0 0 0 0 0 0 0 0 0 0 0 0 0 0 0 0 0 0 0 0 0 0 0 0 0 0 0 0 0 0 0 0 0 0 0 0 0 0 0 0 0 0 0 0 0 0 0 0 0 0 0 0 0 0 0 0 0 0 0 0 0 0 0 0 0 0 0 0 0 0 0 0 0 0 0 0 0 0 0 0 0 0 0 0 0 0 0 0 0 0 0 0 0 0 0 0 0 0 0 0 0 0 0 0 0 0 0 0 0 0 0 0 0 0 0 0 0 0 0 0 0 0 0 0 0 0 0 0 0 0 0 0 0 0 0 0 0 0 0 6 13 17 27 38 44 56 68 78 83 97 119 163 137 149 158 154 155 163 172 186 196 209 211 220 229 240 250 256 266 277 292 301 307 319 325 340 351 362 373 384 395 409 420 433 446 457 469 483 495 511 523 534 550 562 583 602 604 616 634 647 669 686 671 676 699 707 724 739 752 765 774 763 755 742 737 744 740 666 637 691 702 617 659 710 745 788 766 744 738 769 837 792 818 838 862 878 892 905 908 917 937 954 977 1026 1073 1163 1271 1344 1287 1403 1432 1334 1255 1073 1005 977 969 974 973 972 980 979 984 989 985 975 957 933 917 892 872 856 856 861 807 828 864 896 867 878 896 924 945 945 951 946 942 943 942 935 928 915 920 919 915 892 923 1025 999 982 938 955 963 985 1003 1012 1020 1019 1020 1014 1009 995 989 964 938 937 965 988 1006 994 980 969 967 953 938 935 914 923 933 945 962 975 979 982 990 992 1010 1045 1090 1071 1171 987 1004 1077 1115 1129 1128 1122 1311 1277 1173 1153 1161 1172 1219 1210 1234 1232 1265 1308 1368 1373 1329 1290 1327 1322 1348 1343 1359 1399 1377 1348 1333 1343 1399 1472 1420 1436 1712 1753 1504 1559 1520 1594 1617 1616 1691 1639 1535 1539 1565 1536 1569 1606 1694 1670 1628 1675 1463 1421 1369 1381 1397 1393 1398 1404 1427 1437 1436 1451 1457 1458 1463 1468 1646 1750 1695 1683 1712 1748 1932 1875 1918 1921 1990 1964 1945 1942 1922 1903 1896 1898 1838 1842 1837 1808 1804 1789 1779 1787 1775 1772 1756 1759 1756 1757 1742 1755 1736 1736 1712 1711 1722 1718 1713 1723 1706 1687 1676 1676 1676 1680 1688 1701 1682 1682 1667 1657 1667 1663 1652 1650 1644 1659 1647 1649 1633 1627 1624 1616 1626 1632 1627 1618 1608 1604 1601 1600 1601 1598 1597 1602 1598 1594 1590 1586 1585 1580 1582 1580 1573 1577 1574 1568 1578
0 0 0 0 0 0 0 0 0 0 0 0 0 0 0 0 0 0 0 0 0 0 0 0 0 0 0 0 0 0 0 0 0 0 0 0 0 0 0 0 0 0 0 0 0 0 0 0 0 0 0 0 0 0 0 0 0 0 0 0 0 0 0 0 0 0 0 0 0 0 0 0 0 0 0 0 0 0 0 0 0 0 0 0 0 0 0 0 0 0 0 0 0 0 0 0 0 0 0 0 0 0 0 0 0 0 0 0 0 0 0 0 0 0 0 0 0 0 0 0 0 0 0 0 0 0 0 0 0 0 0 0 0 0 0 0 0 0 0 0 0 0 0 0 0 0 0 0 0 0 0 7 14 22 32 36 55 65 72 76 89 119 118 148 132 143 144 153 161 170 180 199 197 204 215 219 234 242 255 266 272 286 295 304 313 328 338 351 360 368 382 394 402 417 438 444 453 465 479 494 509 521 533 546 564 593 593 606 622 640 661 664 678 686 689 692 707 724 731 748 761 767 745 730 717 722 720 698 673 612 670 599 556 615 718 702 731 743 759 795 823 822 789 827 846 860 882 894 901 904 918 945 980 1007 1124 1222 1229 1401 1567 1357 1241 1164 1063 1021 974 968 960 959 976 957 955 959 962 966 969 968 960 951 937 910 885 859 840 829 827 788 877 857 853 839 858 888 912 922 926 927 922 918 922 934 908 910 891 893 957 921 1033 894 956 972 897 925 930 946 959 977 981 986 995 999 995 992 984 970 961 936 929 952 977 987 974 965 936 935 928 915 919 939 948 952 937 944 962 957 956 956 963 1020 990 1087 1061 1105 991 1059 1103 1191 1172 1193 1239 1323 1346 1218 1278 1200 1201 1220 1212 1237 1260 1265 1319 1337 1399 1334 1335 1312 1372 1376 1390 1420 1366 1523 1391 1340 1513 1487 1550 1618 1651 1514 1545 1540 1494 1539 1562 1613 1625 1696 1601 1607 1591 1583 1562 1640 1625 1719 1806 1812 1592 1468 1455 1380 1380 1382 1389 1409 1410 1409 1416 1425 1435 1445 1460 1468 1481 1627 1728 1725 1674 1726 1722 1882 1875 1854 1957 1990 1964 1968 1953 1938 1918 1916 1867 1891 1870 1856 1823 1822 1808 1797 1773 1769 1763 1759 1756 1748 1750 1741 1755 1743 1737 1722 1717 1698 1692 1696 1693 1689 1688 1699 1695 1675 1688 1684 1669 1685 1688 1668 1662 1671 1658 1651 1637 1638 1645 1644 1639 1632 1635 1621 1620 1630 1642 1631 1625 1616 1613 1612 1603 1603 1597 1596 1596 1596 1592 1589 1586 1588 1587 1591 1588 1584 1588 1581 1582 1623
0 0 0 0 0 0 0 0 0 0 0 0 0 0 0 0 0 0 0 0 0 0 0 0 0 0 0 0 0 0 0 0 0 0 0 0 0 0 0 0 0 0 0 0 0 0 0 0 0 0 0 0 0 0 0 0 0 0 0 0 0 0 0 0 0 0 0 0 0 0 0 0 0 0 0 0 0 0 0 0 0 0 0 0 0 0 0 0 0 0 0 0 0 0 0 0 0 0 0 0 0 0 0 0 0 0 0 0 0 0 0 0 0 0 0 0 0 0 0 0 0 0 0 0 0 0 0 0 0 0 0 0 0 0 0 0 0 0 0 0 0 0 0 0 0 0 0 0 0 0 0 5 10 19 29 37 48 56 64 70 87 116 121 124 128 151 140 148 158 162 186 187 193 201 207 220 230 234 246 261 268 280 289 297 312 327 337 344 355 375 376 383 398 415 431 437 448 463 480 489 504 522 537 552 567 579 593 602 619 631 651 657 671 680 681 693 703 717 734 750 755 755 763 719 696 684 707 681 702 622 585 643 684 678 677 750 726 750 786 918 821 825 826 842 851 865 880 886 888 901 923 957 996 1052 1159 1277 1411 1450 1336 1131 1201 1024 1000 978 947 945 933 956 938 933 939 940 947 949 949 945 941 950 948 981 885 859 826 807 811 786 846 832 828 822 842 870 885 895 899 908 904 900 892 925 898 905 883 898 854 979 932 865 886 872 871 886 907 917 937 950 956 959 968 979 968 969 955 948 948 934 920 934 958 958 944 934 905 902 905 914 937 958 971 967 948 937 946 959 963 983 972 957 959 965 986 995 983 998 1053 1105 1310 1264 1247 1413 1463 1303 1336 1255 1257 1344 1259 1241 1264 1376 1345 1444 1347 1330 1352 1332 1377 1439 1456 1577 1482 1468 1442 1474 1371 1487 1504 1458 1472 1535 1468 1576 1601 1570 1614 1635 1657 1643 1684 1614 1672 1587 1659 1605 1638 1641 1799 1722 1558 1485 1416 1416 1393 1385 1390 1396 1406 1426 1434 1432 1444 1457 1465 1467 1483 1528 1632 1715 1685 1767 1845 1766 1771 1885 1957 1950 1971 1988 1950 1929 1920 1904 1906 1886 1879 1861 1831 1836 1818 1788 1786 1783 1763 1773 1755 1748 1748 1744 1753 1774 1762 1744 1727 1703 1700 1700 1698 1706 1721 1698 1687 1677 1671 1661 1662 1674 1667 1666 1658 1650 1654 1647 1644 1631 1628 1631 1634 1626 1619 1620 1629 1649 1643 1637 1633 1621 1616 1613 1604 1610 1613 1600 1594 1597 1592 1592 1590 1592 1597 1597 1592 1598 1601 1578 1635 1589
0 0 0 0 0 0 0 0 0 0 0 0 0 0 0 0 0 0 0 0 0 0 0 0 0 0 0 0 0 0 0 0 0 0 0 0 0 0 0 0 0 0 0 0 0 0 0 0 0 0 0 0 0 0 0 0 0 0 0 0 0 0 0 0 0 0 0 0 0 0 0 0 0 0 0 0 0 0 0 0 0 0 0 0 0 0 0 0 0 0 0 0 0 0 0 0 0 0 0 0 0 0 0 0 0 0 0 0 0 0 0 0 0 0 0 0 0 0 0 0 0 0 0 0 0 0 0 0 0 0 0 0 0 0 0 0 0 0 0 0 0 0 0 0 0 0 0 0 0 0 0 0 9 17 25 36 43 49 56 66 86 102 113 109 127 139 139 141 147 161 172 177 182 189 209 215 223 232 245 257 266 276 287 300 307 317 334 351 354 364 368 377 396 406 416 429 446 468 468 483 503 524 541 543 561 570 587 603 619 630 639 652 661 665 675 694 706 716 735 741 736 742 733 722 696 665 670 646 634 617 623 677 707 747 722 743 739 757 888 877 853 847 848 851 855 866 871 878 888 905 933 972 1096 1125 1170 1386 1468 1152 1129 1036 1026 997 974 958 939 930 916 926 929 917 916 922 929 937 932 928 931 1090 1120 974 883 850 825 799 773 838 835 792 799 791 823 844 858 860 873 882 882 876 879 879 871 912 889 853 906 1044 882 839 843 849 853 858 868 879 901 919 926 934 1004 995 957 948 935 932 929 930 915 904 920 921 909 909 896 913 923 934 947 970 982 991 984 970 952 961 966 999 981 991 981 970 993 1006 1021 1031 1015 1028 1077 1382 1337 1456 1366 1330 1303 1306 1300 1262 1266 1248 1301 1287 1381 1363 1396 1378 1395 1414 1488 1471 1510 1502 1512 1620 1466 1364 1366 1408 1417 1421 1469 1472 1464 1491 1521 1555 1498 1566 1583 1606 1640 1620 1630 1680 1631 1619 1698 1750 1743 1731 1590 1516 1478 1446 1407 1391 1394 1400 1410 1423 1428 1442 1436 1455 1466 1468 1481 1502 1716 1724 1703 1742 1873 1790 1845 1884 1896 1934 1982 1967 1932 1926 1905 1891 1902 1906 1899 1876 1856 1829 1810 1787 1785 1786 1766 1767 1759 1754 1758 1750 1758 1782 1766 1746 1731 1707 1722 1709 1714 1733 1723 1712 1709 1686 1668 1670 1656 1659 1658 1647 1643 1648 1644 1647 1647 1650 1634 1634 1634 1633 1629 1635 1635 1647 1650 1649 1634 1623 1621 1614 1619 1617 1610 1606 1606 1602 1608 1598 1597 1599 1607 1601 1598 1660 1651 1588 1635 1584
0 0 0 0 0 0 0 0 0 0 0 0 0 0 0 0 0 0 0 0 0 0 0 0 0 0 0 0 0 0 0 0 0 0 0 0 0 0 0 0 0 0 0 0 0 0 0 0 0 0 0 0 0 0 0 0 0 0 0 0 0 0 0 0 0 0 0 0 0 0 0 0 0 0 0 0 0 0 0 0 0 0 0 0 0 0 0 0 0 0 0 0 0 0 0 0 0 0 0 0 0 0 0 0 0 0 0 0 0 0 0 0 0 0 0 0 0 0 0 0 0 0 0 0 0 0 0 0 0 0 0 0 0 0 0 0 0 0 0 0 0 0 0 0 0 0 0 0 0 0 0 0 3 14 23 32 38 55 53 68 81 88 93 106 118 134 139 134 139 156 167 173 180 193 203 210 216 229 241 252 267 278 287 291 303 318 329 337 337 354 366 376 391 401 417 426 443 459 473 486 505 513 529 556 562 571 584 603 614 619 635 650 655 675 675 686 698 714 727 732 713 726 714 694 662 637 663 644 699 611 636 713 742 736 745 751 782 800 940 882 860 864 852 848 854 858 865 880 905 928 979 1109 1242 1185 1418 1314 1281 1079 1028 1006 995 980 964 951 931 919 907 906 907 899 894 900 904 907 905 902 1072 1032 1025 913 882 857 828 807 799 819 795 773 766 774 804 814 831 832 843 854 860 860 846 866 855 914 862 823 874 900 836 814 835 822 820 814 829 850 883 891 895 905 934 931 929 920 910 903 900 914 921 891 884 882 893 900 909 919 937 949 966 983 1001 1009 1017 1073 990 970 972 966 979 1042 988 967 980 1044 1053 1068 1077 1163 1232 1173 1262 1316 1343 1335 1341 1348 1324 1285 1287 1284 1283 1313 1334 1401 1414 1494 1546 1454 1488 1488 1525 1656 1652 1528 1526 1446 1388 1379 1403 1399 1416 1505 1444 1579 1530 1607 1569 1517 1558 1542 1675 1652 1681 1716 1651 1645 1814 1766 1771 1686 1586 1580 1592 1483 1471 1408 1394 1423 1415 1418 1431 1446 1447 1454 1455 1478 1481 1495 1555 1765 1714 1721 1878 1820 1843 1845 1935 1988 1976 1959 1944 1961 1953 1902 1910 1898 1929 1881 1853 1848 1805 1813 1808 1802 1786 1769 1773 1758 1754 1755 1768 1766 1754 1732 1722 1728 1726 1733 1723 1713 1714 1703 1705 1694 1669 1657 1657 1663 1653 1653 1653 1643 1651 1657 1658 1641 1637 1651 1649 1637 1639 1641 1649 1661 1650 1643 1638 1628 1628 1625 1621 1615 1612 1606 1613 1613 1607 1601 1604 1606 1607 1604 1614 1710 1784 1593 1588 1586
0 0 0 0 0 0 0 0 0 0 0 0 0 0 0 0 0 0 0 0 0 0 0 0 0 0 0 0 0 0 0 0 0 0 0 0 0 0 0 0 0 0 0 0 0 0 0 0 0 0 0 0 0 0 0 0 0 0 0 0 0 0 0 0 0 0 0 0 0 0 0 0 0 0 0 0 0 0 0 0 0 0 0 0 0 0 0 0 0 0 0 0 0 0 0 0 0 0 0 0 0 0 0 0 0 0 0 0 0 0 0 0 0 0 0 0 0 0 0 0 0 0 0 0 0 0 0 0 0 0 0 0 0 0 0 0 0 0 0 0 0 0 0 0 0 0 0 0 0 0 0 0 5 17 22 27 41 39 55 62 72 83 95 128 130 156 132 123 135 153 158 168 182 186 197 204 213 226 235 248 265 272 276 288 297 302 313 317 319 344 358 373 386 398 413 424 441 454 474 494 507 512 528 548 555 568 581 596 616 625 633 639 649 656 671 687 702 720 714 715 707 705 691 693 660 631 546 569 689 687 652 676 720 729 740 758 784 827 948 897 906 862 842 841 845 851 863 890 924 969 1045 1188 1280 1244 1092 1149 1050 1022 1008 991 974 969 954 948 935 918 910 895 880 876 874 874 882 884 877 895 919 924 891 903 896 850 813 797 796 745 733 757 739 756 770 779 791 792 810 826 838 835 835 852 850 822 826 839 972 814 801 796 799 809 810 827 836 839 912 854 863 960 885 895 888 897 883 878 882 898 891 885 894 907 913 919 915 926 944 964 982 999 1017 1040 1061 1302 1051 999 990 979 983 994 995 989 990 1002 1052 1097 1106 1202 1318 1344 1288 1317 1340 1382 1342 1367 1416 1359 1400 1340 1321 1330 1336 1461 1504 1627 1592 1488 1637 1649 1565 1616 1626 1572 1505 1494 1423 1408 1399 1421 1421 1413 1432 1457 1505 1597 1562 1552 1570 1604 1568 1650 1712 1709 1676 1671 1740 1867 1790 1663 1639 1642 1631 1498 1485 1426 1403 1411 1427 1431 1427 1436 1460 1472 1460 1465 1475 1488 1552 1709 1708 1722 1772 1861 1796 1874 1949 2007 1997 1975 1962 1974 1923 1925 1942 1934 1906 1881 1883 1844 1816 1829 1824 1798 1792 1781 1768 1777 1753 1769 1768 1782 1753 1738 1726 1746 1738 1722 1712 1697 1693 1705 1680 1671 1668 1667 1674 1658 1658 1673 1659 1666 1654 1658 1654 1651 1652 1665 1653 1641 1647 1644 1651 1665 1655 1645 1642 1638 1638 1623 1622 1616 1614 1617 1621 1615 1607 1609 1616 1611 1607 1606 1619 1649 1763 1600 1590 1582
0 0 0 0 0 0 0 0 0 0 0 0 0 0 0 0 0 0 0 0 0 0 0 0 0 0 0 0 0 0 0 0 0 0 0 0 0 0 0 0 0 0 0 0 0 0 0 0 0 0 0 0 0 0 0 0 0 0 0 0 0 0 0 0 0 0 0 0 0 0 0 0 0 0 0 0 0 0 0 0 0 0 0 0 0 0 0 0 0 0 0 0 0 0 0 0 0 0 0 0 0 0 0 0 0 0 0 0 0 0 0 0 0 0 0 0 0 0 0 0 0 0 0 0 0 0 0 0 0 0 0 0 0 0 0 0 0 0 0 0 0 0 0 0 0 0 0 0 0 0 0 0 3 10 19 20 24 37 46 60 66 73 91 108 133 118 118 132 141 144 152 168 173 180 189 198 206 215 232 243 251 260 266 276 298 298 309 303 326 343 355 364 382 392 408 422 439 463 472 492 500 513 526 546 557 564 578 590 622 613 626 633 645 662 677 689 702 714 701 706 691 677 664 667 655 630 564 485 616 636 640 703 741 726 746 795 787 819 941 911 921 855 832 830 837 846 876 973 1027 1084 1123 1309 1099 1109 1042 1042 1026 1009 999 981 979 981 978 968 977 939 918 899 883 864 857 846 854 855 862 871 887 883 851 850 839 828 793 780 766 844 740 723 720 730 727 748 755 760 779 799 817 812 810 886 808 834 792 887 859 790 819 815 823 832 842 855 871 880 847 833 834 841 848 849 870 885 857 868 864 872 875 891 920 935 938 945 932 931 960 986 1008 1023 1034 1062 1076 1089 1048 1017 1004 994 982 985 1007 1012 1029 1012 1108 1096 1137 1377 1441 1400 1354 1321 1337 1360 1369 1418 1411 1380 1424 1399 1458 1474 1367 1464 1517 1599 1702 1640 1669 1581 1599 1698 1609 1518 1482 1431 1409 1414 1415 1435 1484 1426 1441 1441 1455 1549 1558 1543 1598 1577 1635 1651 1607 1711 1753 1753 1659 1768 1788 1804 1782 1680 1700 1506 1510 1412 1406 1413 1420 1437 1440 1442 1449 1473 1474 1476 1479 1476 1493 1669 1749 1720 1753 1845 1785 1976 2044 1968 2008 2002 1986 1981 1963 1948 1960 1930 1891 1873 1865 1847 1829 1843 1824 1816 1814 1792 1785 1768 1759 1766 1760 1791 1774 1747 1739 1749 1752 1732 1710 1708 1699 1685 1694 1681 1678 1681 1676 1668 1675 1667 1673 1665 1663 1667 1666 1656 1661 1673 1650 1652 1654 1649 1658 1668 1654 1655 1647 1645 1631 1626 1624 1626 1622 1624 1623 1615 1614 1616 1619 1617 1610 1608 1611 1616 1609 1597 1589 1588
0 0 0 0 0 0 0 0 0 0 0 0 0 0 0 0 0 0 0 0 0 0 0 0 0 0 0 0 0 0 0 0 0 0 0 0 0 0 0 0 0 0 0 0 0 0 0 0 0 0 0 0 0 0 0 0 0 0 0 0 0 0 0 0 0 0 0 0 0 0 0 0 0 0 0 0 0 0 0 0 0 0 0 0 0 0 0 0 0 0 0 0 0 0 0 0 0 0 0 0 0 0 0 0 0 0 0 0 0 0 0 0 0 0 0 0 0 0 0 0 0 0 0 0 0 0 0 0 0 0 0 0 0 0 0 0 0 0 0 0 0 0 0 0 0 0 0 0 0 0 0 0 0 6 13 16 25 36 45 52 56 72 96 99 109 106 120 125 134 142 154 157 163 175 184 190 201 212 228 244 249 252 256 284 285 285 299 317 325 335 349 360 373 388 408 427 436 457 475 492 497 515 536 537 543 557 573 583 602 613 625 635 649 660 672 683 694 704 688 697 690 651 642 654 630 538 479 624 609 757 679 714 726 744 762 791 778 791 816 818 851 820 818 820 829 841 959 1022 1244 1146 1058 1070 1038 1033 1021 1024 1020 1017 1001 1002 1008 1014 1000 974 961 945 926 903 880 864 848 825 828 833 843 850 893 829 835 834 830 782 769 763 744 757 711 716 717 721 726 729 734 737 750 767 794 779 771 765 808 789 795 783 793 819 834 854 862 870 887 885 894 905 913 882 885 867 866 869 863 856 871 905 893 891 904 914 943 959 969 967 967 959 1006 994 1110 1191 1132 1120 1081 1067 1058 1035 1018 1008 997 991 1017 1056 1055 1013 1128 1183 1242 1403 1445 1413 1368 1350 1346 1369 1374 1396 1419 1510 1493 1510 1545 1549 1487 1556 1608 1621 1663 1620 1693 1637 1620 1607 1648 1519 1501 1604 1489 1425 1463 1463 1565 1453 1450 1441 1466 1483 1543 1565 1569 1617 1642 1681 1699 1659 1731 1775 1732 1691 1798 1833 1775 1809 1731 1574 1525 1423 1420 1416 1423 1425 1439 1453 1458 1463 1485 1480 1492 1496 1497 1644 1741 1732 1764 1862 1804 1929 1958 1936 1999 1984 1966 1939 1927 1913 1912 1909 1875 1853 1848 1841 1831 1826 1823 1807 1807 1792 1777 1773 1774 1765 1768 1789 1762 1751 1754 1746 1745 1729 1718 1705 1695 1707 1696 1692 1692 1697 1687 1678 1678 1672 1682 1681 1671 1671 1668 1655 1671 1665 1658 1656 1669 1657 1671 1667 1663 1657 1652 1640 1635 1632 1632 1628 1625 1632 1623 1619 1624 1629 1625 1614 1619 1618 1609 1606 1603 1596 1594 1595
