ncols        516
nrows        39
xllcorner    288845
yllcorner    7769325
cellsize     1000.000000000000
-13 -3 7 18 29 42 55 68 83 97 113 129 145 161 178 195 213 230 248 266 284 302 320 337 355 373 391 408 426 443 460 476 493 509 525 540 555 570 585 599 613 626 639 652 664 676 688 699 710 721 731 742 751 761 770 779 788 796 805 813 821 829 836 844 851 858 865 872 879 886 893 900 907 913 920 927 933 940 947 954 960 967 974 980 987 994 1001 1007 1014 1021 1028 1034 1041 1047 1054 1060 1067 1073 1079 1085 1091 1097 1102 1108 1113 1118 1123 1127 1132 1136 1140 1144 1147 1150 1153 1156 1158 1160 1162 1163 1164 1165 1166 1166 1166 1166 1165 1164 1163 1161 1159 1157 1155 1152 1150 1147 1144 1140 1137 1133 1129 1125 1121 1117 1113 1108 1104 1099 1095 1091 1086 1082 1078 1074 1069 1065 1062 1058 1054 1051 1048 1045 1042 1040 1037 1035 1033 1032 1030 1029 1029 1028 1028 1028 1028 1029 1030 1031 1033 1034 1036 1039 1041 1044 1047 1050 1054 1057 1061 1065 1070 1074 1078 1083 1088 1093 1098 1103 1108 1113 1118 1124 1129 1134 1139 1145 1150 1155 1160 1165 1170 1174 1179 1184 1188 1192 1197 1201 1204 1208 1212 1215 1219 1222 1225 1228 1230 1233 1235 1237 1240 1242 1243 1245 1247 1248 1250 1251 1252 1253 1254 1255 1256 1257 1258 1259 1260 1261 1261 1262 1263 1264 1265 1266 1267 1268 1269 1270 1271 1273 1274 1276 1277 1279 1280 1282 1284 1286 1288 1290 1292 1294 1296 1298 1301 1303 1306 1308 1310 1313 1315 1318 1320 1323 1325 1328 1330 1332 1334 1337 1339 1341 1342 1344 1346 1347 1349 1350 1351 1352 1353 1354 1354 1355 1355 1355 1355 1354 1354 1353 1352 1352 1350 1349 1348 1346 1345 1343 1341 1339 1337 1335 1332 1330 1328 1325 1323 1321 1318 1316 1313 1311 1309 1306 1304 1302 1300 1298 1297 1295 1294 1292 1291 1291 1290 1289 1289 1289 1289 1289 1290 1291 1292 1293 1294 1296 1298 1300 1303 1305 1308 1311 1314 1318 1321 1325 1329 1333 1337 1341 1346 1350 1354 1359 1364 1368 1373 1377 1382 1386 1391 1395 1400 1404 1408 1412 1415 1419 1422 1426 1429 1431 1434 1436 1438 1440 1442 1443 1444 1445 1446 1446 1446 1446 1446 1445 1444 1443 1442 1441 1439 1437 1435 1433 1431 1429 1426 1424 1421 1419 1416 1414 1412 1409 1407 1405 1403 1401 1400 1398 1397 1396 1395 1395 1395 1395 1396 1397 1398 1400 1402 1404 1407 1410 1414 1418 1422 1427 1432 1438 1444 1450 1457 1464 1471 1479 1487 1495 1504 1512 1521 1530 1539 1548 1557 1566 1575 1584 1593 1602 1611 1619 1627 1635 1642 1649 1655 1661 1666 1671 1675 1679 1681 1683 1685 1685 1684 1683 1681 1677 1673 1668 1662 1654 1646 1636 1626 1614 1601 1587 1572 1556 1539 1521 1501 1481 1459 1437 1413 1388 1363 1337 1309 1281 1252 1223
-17 -8 2 12 24 36 49 62 76 91 106 122 138 154 171 188 205 223 240 258 276 294 311 329 347 365 382 400 417 434 451 467 484 500 516 531 546 561 576 590 604 617 630 643 656 668 680 691 702 713 723 734 744 753 763 772 781 789 798 806 814 822 830 837 845 852 860 867 874 881 888 895 902 909 916 922 929 936 943 950 957 963 970 977 984 991 998 1005 1011 1018 1025 1032 1038 1045 1052 1058 1064 1071 1077 1083 1089 1094 1100 1106 1111 1116 1121 1125 1130 1134 1138 1141 1145 1148 1151 1153 1155 1157 1159 1160 1161 1162 1163 1163 1163 1162 1161 1160 1159 1157 1155 1153 1151 1148 1145 1142 1139 1136 1132 1128 1124 1120 1116 1112 1107 1103 1098 1094 1089 1085 1081 1076 1072 1068 1063 1059 1056 1052 1048 1045 1042 1039 1036 1033 1031 1029 1027 1025 1024 1023 1022 1022 1022 1022 1022 1023 1024 1025 1027 1029 1031 1033 1036 1038 1042 1045 1048 1052 1056 1060 1065 1069 1074 1078 1083 1088 1093 1098 1104 1109 1114 1120 1125 1130 1136 1141 1146 1151 1157 1162 1167 1171 1176 1181 1185 1190 1194 1198 1202 1206 1210 1213 1217 1220 1223 1226 1229 1232 1234 1236 1239 1241 1243 1244 1246 1248 1249 1251 1252 1253 1254 1255 1256 1257 1258 1259 1260 1261 1262 1263 1264 1265 1266 1267 1268 1269 1270 1271 1273 1274 1275 1277 1278 1280 1282 1283 1285 1287 1289 1291 1293 1296 1298 1300 1303 1305 1308 1310 1312 1315 1318 1320 1323 1325 1327 1330 1332 1335 1337 1339 1341 1343 1345 1347 1348 1350 1351 1353 1354 1355 1356 1356 1357 1357 1357 1357 1357 1357 1357 1356 1355 1354 1353 1352 1350 1349 1347 1345 1343 1341 1339 1337 1335 1333 1330 1328 1325 1323 1320 1318 1316 1313 1311 1309 1306 1304 1302 1300 1299 1297 1296 1294 1293 1292 1291 1291 1291 1290 1290 1291 1291 1292 1293 1294 1296 1297 1299 1301 1304 1306 1309 1312 1315 1319 1322 1326 1330 1334 1338 1342 1346 1351 1355 1360 1364 1369 1374 1378 1383 1387 1392 1396 1401 1405 1409 1413 1417 1420 1424 1427 1430 1433 1435 1438 1440 1442 1444 1445 1446 1447 1448 1448 1448 1448 1448 1447 1446 1445 1444 1443 1441 1440 1438 1436 1433 1431 1429 1426 1424 1422 1419 1417 1414 1412 1410 1408 1406 1404 1402 1401 1400 1399 1398 1398 1398 1398 1398 1399 1400 1402 1404 1406 1409 1412 1416 1420 1424 1429 1434 1440 1445 1452 1458 1465 1472 1480 1488 1496 1504 1513 1521 1530 1539 1548 1557 1566 1575 1584 1592 1601 1609 1618 1625 1633 1640 1647 1653 1659 1664 1669 1673 1676 1679 1681 1682 1682 1682 1680 1678 1674 1670 1665 1658 1651 1643 1633 1622 1611 1598 1584 1569 1553 1536 1517 1498 1477 1456 1433 1410 1385 1360 1334 1306 1278 1249 1220
-22 -13 -4 7 18 30 43 56 70 85 100 115 131 147 164 181 198 215 232 250 268 285 303 321 339 356 374 391 408 425 442 459 475 491 507 522 537 552 567 581 595 609 622 635 647 659 671 683 694 705 715 726 736 745 755 764 773 782 791 799 807 815 823 831 839 846 854 861 868 875 883 890 897 904 911 918 925 932 939 946 953 960 967 974 981 988 995 1002 1008 1015 1022 1029 1036 1042 1049 1055 1062 1068 1074 1080 1086 1092 1098 1103 1108 1113 1118 1123 1127 1131 1135 1139 1142 1145 1148 1150 1153 1155 1156 1157 1158 1159 1159 1159 1159 1159 1158 1156 1155 1153 1151 1149 1147 1144 1141 1138 1134 1131 1127 1123 1119 1115 1111 1106 1102 1097 1093 1088 1084 1079 1075 1070 1066 1062 1057 1053 1049 1046 1042 1039 1035 1032 1030 1027 1025 1023 1021 1019 1018 1017 1016 1016 1016 1016 1016 1017 1018 1019 1021 1023 1025 1027 1030 1033 1036 1039 1043 1047 1051 1055 1060 1064 1069 1074 1079 1084 1089 1094 1100 1105 1110 1116 1121 1127 1132 1138 1143 1148 1153 1159 1164 1169 1174 1178 1183 1188 1192 1196 1200 1204 1208 1212 1215 1219 1222 1225 1228 1230 1233 1235 1238 1240 1242 1244 1246 1247 1249 1250 1252 1253 1254 1255 1256 1257 1259 1260 1260 1261 1262 1263 1264 1265 1266 1267 1269 1270 1271 1272 1274 1275 1276 1278 1280 1281 1283 1285 1287 1289 1291 1293 1295 1297 1300 1302 1304 1307 1309 1312 1314 1317 1319 1322 1325 1327 1330 1332 1334 1337 1339 1341 1343 1345 1347 1349 1351 1352 1354 1355 1356 1357 1358 1359 1359 1360 1360 1360 1360 1359 1359 1358 1357 1357 1355 1354 1353 1351 1350 1348 1346 1344 1342 1339 1337 1335 1332 1330 1328 1325 1323 1320 1318 1315 1313 1311 1308 1306 1304 1302 1300 1299 1297 1296 1295 1294 1293 1292 1292 1292 1292 1292 1293 1293 1294 1295 1297 1298 1300 1302 1305 1307 1310 1313 1316 1320 1323 1327 1331 1335 1339 1343 1347 1352 1356 1361 1365 1370 1375 1379 1384 1388 1393 1397 1402 1406 1410 1414 1418 1421 1425 1428 1431 1434 1437 1439 1441 1443 1445 1447 1448 1449 1450 1450 1450 1450 1450 1449 1449 1448 1447 1445 1444 1442 1440 1438 1436 1434 1432 1429 1427 1424 1422 1420 1417 1415 1413 1411 1409 1407 1405 1404 1403 1402 1401 1400 1400 1400 1401 1402 1403 1405 1406 1409 1411 1414 1418 1422 1426 1431 1436 1441 1447 1453 1459 1466 1473 1481 1488 1496 1504 1513 1521 1530 1539 1548 1556 1565 1574 1583 1591 1600 1608 1616 1624 1631 1638 1645 1651 1657 1662 1667 1671 1674 1676 1678 1679 1679 1679 1677 1675 1671 1667 1662 1655 1648 1639 1630 1619 1607 1594 1581 1566 1549 1532 1514 1495 1474 1453 1430 1407 1382 1357 1331 1303 1275 1247 1217
-27 -18 -9 2 13 25 37 50 64 78 93 109 124 140 157 173 190 208 225 242 260 277 295 313 330 348 365 382 400 417 433 450 466 482 498 513 529 543 558 572 586 600 613 626 638 651 663 674 685 696 707 718 728 738 747 757 766 775 783 792 800 808 817 824 832 840 848 855 862 870 877 884 892 899 906 913 920 927 934 942 949 956 963 970 977 984 991 998 1005 1012 1019 1026 1033 1039 1046 1053 1059 1066 1072 1078 1084 1090 1095 1101 1106 1111 1116 1120 1125 1129 1132 1136 1139 1142 1145 1147 1150 1151 1153 1154 1155 1155 1156 1156 1155 1155 1154 1152 1151 1149 1147 1145 1142 1139 1136 1133 1129 1126 1122 1118 1114 1110 1105 1101 1096 1092 1087 1083 1078 1073 1069 1064 1060 1056 1051 1047 1043 1040 1036 1032 1029 1026 1023 1021 1018 1016 1015 1013 1012 1011 1010 1010 1010 1010 1010 1011 1012 1014 1015 1017 1019 1022 1025 1028 1031 1034 1038 1042 1046 1050 1055 1059 1064 1069 1074 1080 1085 1090 1096 1101 1107 1112 1118 1123 1129 1134 1140 1145 1151 1156 1161 1166 1171 1176 1181 1185 1190 1194 1198 1202 1206 1210 1214 1217 1220 1224 1226 1229 1232 1234 1237 1239 1241 1243 1245 1247 1248 1250 1251 1253 1254 1255 1256 1258 1259 1260 1261 1262 1263 1264 1265 1266 1267 1268 1269 1271 1272 1273 1275 1276 1277 1279 1281 1282 1284 1286 1288 1290 1292 1294 1297 1299 1301 1304 1306 1308 1311 1314 1316 1319 1321 1324 1326 1329 1331 1334 1336 1339 1341 1343 1345 1347 1349 1351 1353 1354 1356 1357 1358 1359 1360 1361 1361 1362 1362 1362 1362 1362 1361 1361 1360 1359 1358 1356 1355 1353 1352 1350 1348 1346 1344 1342 1339 1337 1334 1332 1329 1327 1324 1322 1319 1317 1315 1312 1310 1308 1306 1304 1302 1300 1299 1297 1296 1295 1294 1294 1293 1293 1293 1293 1294 1294 1295 1296 1298 1299 1301 1303 1306 1308 1311 1314 1317 1320 1324 1327 1331 1335 1339 1344 1348 1352 1357 1361 1366 1371 1375 1380 1384 1389 1394 1398 1402 1407 1411 1415 1419 1422 1426 1429 1432 1435 1438 1441 1443 1445 1447 1448 1449 1450 1451 1452 1452 1452 1452 1451 1451 1450 1449 1447 1446 1444 1443 1441 1439 1436 1434 1432 1430 1427 1425 1422 1420 1418 1416 1413 1412 1410 1408 1407 1405 1404 1404 1403 1403 1403 1404 1404 1405 1407 1409 1411 1414 1417 1420 1424 1428 1432 1437 1443 1448 1454 1461 1467 1474 1481 1489 1497 1505 1513 1521 1530 1539 1547 1556 1565 1573 1582 1590 1599 1607 1615 1622 1630 1637 1643 1649 1655 1660 1664 1668 1671 1674 1675 1676 1676 1676 1674 1671 1668 1664 1658 1652 1644 1636 1626 1615 1604 1591 1577 1562 1546 1529 1510 1491 1471 1449 1427 1403 1379 1354 1327 1300 1272 1244 1214
-32 -23 -14 -3 8 19 32 45 58 72 87 102 118 133 150 166 183 200 217 235 252 269 287 304 322 339 357 374 391 408 424 441 457 473 489 504 520 534 549 563 577 591 604 617 630 642 654 666 677 688 699 709 720 729 739 749 758 767 776 785 793 801 810 818 826 833 841 849 856 864 871 879 886 894 901 908 915 923 930 937 944 952 959 966 973 980 987 995 1002 1009 1016 1023 1030 1036 1043 1050 1056 1063 1069 1075 1081 1087 1092 1098 1103 1108 1113 1117 1122 1126 1129 1133 1136 1139 1142 1144 1146 1148 1149 1150 1151 1152 1152 1152 1151 1151 1150 1148 1147 1145 1143 1140 1137 1134 1131 1128 1124 1121 1117 1113 1109 1104 1100 1095 1091 1086 1081 1077 1072 1067 1063 1058 1054 1049 1045 1041 1037 1033 1030 1026 1023 1020 1017 1015 1012 1010 1008 1007 1006 1005 1004 1004 1004 1004 1004 1005 1006 1008 1010 1012 1014 1016 1019 1022 1026 1029 1033 1037 1041 1046 1050 1055 1060 1065 1070 1075 1081 1086 1092 1097 1103 1109 1114 1120 1126 1131 1137 1142 1148 1153 1158 1164 1169 1174 1179 1183 1188 1192 1197 1201 1205 1209 1212 1216 1219 1222 1225 1228 1231 1234 1236 1238 1241 1243 1245 1246 1248 1250 1251 1253 1254 1255 1257 1258 1259 1260 1261 1262 1263 1264 1265 1267 1268 1269 1270 1271 1273 1274 1275 1277 1278 1280 1282 1284 1285 1287 1289 1291 1293 1296 1298 1300 1303 1305 1307 1310 1313 1315 1318 1320 1323 1325 1328 1331 1333 1336 1338 1340 1343 1345 1347 1349 1351 1353 1355 1356 1358 1359 1360 1361 1362 1363 1363 1364 1364 1364 1364 1364 1363 1363 1362 1361 1360 1358 1357 1355 1354 1352 1350 1348 1346 1343 1341 1339 1336 1334 1331 1329 1326 1324 1321 1319 1316 1314 1311 1309 1307 1305 1303 1302 1300 1299 1297 1296 1295 1295 1294 1294 1294 1294 1295 1295 1296 1297 1299 1300 1302 1304 1306 1309 1311 1314 1317 1321 1324 1328 1332 1336 1340 1344 1348 1353 1357 1362 1367 1371 1376 1380 1385 1390 1394 1399 1403 1407 1412 1416 1420 1423 1427 1430 1434 1437 1439 1442 1444 1446 1448 1450 1451 1452 1453 1454 1454 1454 1454 1453 1453 1452 1451 1450 1448 1447 1445 1443 1441 1439 1437 1435 1432 1430 1427 1425 1423 1421 1418 1416 1414 1413 1411 1409 1408 1407 1406 1406 1406 1406 1406 1407 1408 1409 1411 1413 1416 1419 1422 1426 1430 1434 1439 1444 1450 1455 1462 1468 1475 1482 1490 1497 1505 1513 1521 1530 1538 1547 1555 1564 1572 1581 1589 1597 1605 1613 1621 1628 1635 1641 1647 1652 1657 1662 1665 1668 1671 1672 1673 1673 1672 1671 1668 1664 1660 1655 1648 1641 1632 1622 1612 1600 1587 1573 1558 1542 1525 1507 1487 1467 1446 1423 1400 1376 1350 1324 1297 1269 1241 1211
-36 -28 -18 -8 2 14 26 39 52 66 81 96 111 127 143 159 176 193 210 227 244 261 279 296 314 331 348 365 382 399 416 432 448 464 480 495 510 525 540 554 568 582 595 608 621 633 645 657 668 679 690 701 711 721 731 741 750 759 768 777 786 794 803 811 819 827 835 843 850 858 865 873 881 888 895 903 910 918 925 932 940 947 954 962 969 976 984 991 998 1005 1012 1019 1026 1033 1040 1046 1053 1059 1066 1072 1078 1084 1089 1095 1100 1105 1110 1114 1118 1122 1126 1130 1133 1136 1138 1141 1143 1144 1146 1147 1147 1148 1148 1148 1147 1146 1145 1144 1142 1140 1138 1135 1133 1130 1126 1123 1119 1115 1111 1107 1103 1099 1094 1090 1085 1080 1076 1071 1066 1061 1057 1052 1048 1043 1039 1035 1031 1027 1023 1020 1017 1014 1011 1008 1006 1004 1002 1001 1000 999 998 998 998 998 999 1000 1001 1002 1004 1006 1009 1011 1014 1017 1021 1024 1028 1032 1037 1041 1046 1051 1056 1061 1066 1071 1077 1083 1088 1094 1100 1105 1111 1117 1123 1128 1134 1140 1145 1151 1156 1161 1167 1172 1177 1181 1186 1191 1195 1199 1203 1207 1211 1215 1218 1221 1224 1227 1230 1233 1235 1238 1240 1242 1244 1246 1248 1250 1251 1253 1254 1255 1257 1258 1259 1260 1261 1263 1264 1265 1266 1267 1268 1269 1271 1272 1273 1275 1276 1278 1279 1281 1283 1284 1286 1288 1290 1292 1295 1297 1299 1301 1304 1306 1309 1311 1314 1316 1319 1322 1324 1327 1330 1332 1335 1337 1340 1342 1344 1347 1349 1351 1353 1355 1356 1358 1359 1361 1362 1363 1364 1365 1365 1366 1366 1366 1366 1365 1365 1364 1363 1362 1361 1360 1359 1357 1355 1354 1352 1349 1347 1345 1343 1340 1338 1335 1333 1330 1328 1325 1322 1320 1317 1315 1313 1311 1308 1306 1304 1303 1301 1300 1298 1297 1296 1296 1295 1295 1295 1295 1295 1296 1297 1298 1299 1301 1302 1305 1307 1309 1312 1315 1318 1321 1325 1328 1332 1336 1340 1344 1349 1353 1358 1362 1367 1372 1376 1381 1386 1390 1395 1399 1404 1408 1412 1417 1420 1424 1428 1431 1435 1438 1440 1443 1445 1448 1450 1451 1453 1454 1455 1455 1456 1456 1456 1455 1455 1454 1453 1452 1451 1449 1447 1446 1444 1442 1439 1437 1435 1433 1430 1428 1426 1423 1421 1419 1417 1415 1414 1412 1411 1410 1409 1409 1408 1408 1409 1409 1410 1412 1413 1415 1418 1421 1424 1427 1431 1436 1440 1445 1451 1457 1463 1469 1476 1483 1490 1498 1505 1513 1521 1529 1538 1546 1555 1563 1571 1580 1588 1596 1604 1611 1619 1626 1632 1639 1644 1650 1655 1659 1662 1665 1668 1669 1670 1670 1669 1667 1664 1661 1656 1651 1644 1637 1628 1619 1608 1596 1583 1569 1554 1538 1521 1503 1484 1463 1442 1420 1396 1372 1347 1321 1294 1266 1237 1208
-40 -32 -23 -13 -3 9 21 33 46 60 75 89 104 120 136 152 169 185 202 219 236 254 271 288 305 323 340 357 374 390 407 423 439 455 471 486 501 516 531 545 559 573 586 599 612 624 636 648 659 671 682 692 703 713 723 733 742 751 761 770 778 787 795 804 812 820 828 836 844 852 859 867 875 882 890 898 905 913 920 928 935 942 950 957 965 972 979 987 994 1001 1008 1015 1022 1029 1036 1043 1049 1056 1062 1068 1074 1080 1086 1091 1096 1101 1106 1111 1115 1119 1123 1126 1129 1132 1135 1137 1139 1140 1142 1143 1143 1144 1144 1143 1143 1142 1141 1139 1137 1135 1133 1130 1128 1124 1121 1118 1114 1110 1106 1102 1097 1093 1088 1084 1079 1074 1070 1065 1060 1055 1051 1046 1042 1037 1033 1029 1025 1021 1017 1014 1011 1008 1005 1002 1000 998 996 995 994 993 992 992 992 992 993 994 995 997 999 1001 1003 1006 1009 1012 1016 1020 1023 1028 1032 1037 1041 1046 1052 1057 1062 1068 1073 1079 1085 1090 1096 1102 1108 1114 1120 1126 1131 1137 1143 1148 1154 1159 1164 1170 1175 1180 1184 1189 1193 1198 1202 1206 1210 1213 1217 1220 1224 1227 1229 1232 1235 1237 1240 1242 1244 1246 1248 1249 1251 1253 1254 1255 1257 1258 1259 1260 1262 1263 1264 1265 1266 1268 1269 1270 1271 1273 1274 1275 1277 1278 1280 1282 1283 1285 1287 1289 1291 1293 1296 1298 1300 1302 1305 1307 1310 1312 1315 1318 1320 1323 1326 1328 1331 1333 1336 1339 1341 1343 1346 1348 1350 1352 1354 1356 1358 1360 1361 1362 1364 1365 1365 1366 1367 1367 1367 1367 1367 1367 1366 1366 1365 1364 1363 1362 1360 1359 1357 1355 1353 1351 1349 1346 1344 1342 1339 1337 1334 1331 1329 1326 1324 1321 1319 1316 1314 1312 1309 1307 1305 1304 1302 1300 1299 1298 1297 1296 1296 1295 1295 1295 1296 1296 1297 1298 1300 1301 1303 1305 1307 1310 1312 1315 1318 1322 1325 1329 1332 1336 1341 1345 1349 1354 1358 1363 1367 1372 1377 1381 1386 1391 1395 1400 1404 1409 1413 1417 1421 1425 1429 1432 1436 1439 1442 1444 1447 1449 1451 1453 1454 1455 1456 1457 1458 1458 1458 1457 1457 1456 1455 1454 1453 1451 1450 1448 1446 1444 1442 1440 1438 1435 1433 1431 1428 1426 1424 1422 1420 1418 1416 1415 1414 1413 1412 1411 1411 1411 1411 1412 1413 1414 1416 1418 1420 1423 1426 1429 1433 1437 1442 1447 1452 1458 1464 1470 1476 1483 1490 1498 1505 1513 1521 1529 1537 1545 1554 1562 1570 1578 1586 1594 1602 1610 1617 1624 1630 1636 1642 1647 1652 1656 1659 1662 1664 1666 1666 1666 1665 1663 1661 1657 1653 1647 1640 1633 1624 1615 1604 1592 1579 1565 1550 1534 1517 1499 1480 1460 1438 1416 1393 1369 1343 1317 1290 1263 1234 1205
-44 -36 -28 -18 -8 4 15 28 41 54 68 83 98 113 129 145 161 178 195 212 229 246 263 280 297 314 331 348 365 382 398 414 430 446 462 477 492 507 522 536 550 563 577 590 603 615 627 639 651 662 673 684 694 705 715 724 734 743 753 762 771 779 788 796 805 813 821 829 837 845 853 861 869 877 884 892 900 907 915 922 930 938 945 953 960 968 975 983 990 997 1004 1011 1019 1026 1032 1039 1046 1052 1059 1065 1071 1077 1082 1088 1093 1098 1103 1107 1111 1115 1119 1122 1125 1128 1131 1133 1135 1136 1138 1138 1139 1139 1139 1139 1138 1137 1136 1134 1133 1130 1128 1125 1122 1119 1116 1112 1108 1104 1100 1096 1092 1087 1083 1078 1073 1068 1064 1059 1054 1049 1045 1040 1035 1031 1027 1022 1018 1015 1011 1008 1004 1001 999 996 994 992 990 989 988 987 986 986 986 987 987 989 990 992 993 996 998 1001 1004 1007 1011 1015 1019 1023 1028 1032 1037 1042 1048 1053 1058 1064 1070 1076 1081 1087 1093 1099 1105 1111 1117 1123 1129 1135 1140 1146 1152 1157 1163 1168 1173 1178 1183 1187 1192 1196 1201 1205 1209 1212 1216 1219 1223 1226 1229 1232 1234 1237 1239 1241 1244 1246 1247 1249 1251 1252 1254 1255 1257 1258 1259 1261 1262 1263 1264 1265 1267 1268 1269 1270 1272 1273 1275 1276 1277 1279 1281 1282 1284 1286 1288 1290 1292 1294 1296 1299 1301 1303 1306 1308 1311 1313 1316 1319 1321 1324 1327 1329 1332 1335 1337 1340 1342 1345 1347 1349 1351 1354 1356 1357 1359 1361 1362 1364 1365 1366 1367 1367 1368 1368 1369 1369 1369 1368 1368 1367 1366 1365 1364 1363 1361 1360 1358 1356 1354 1352 1350 1348 1345 1343 1340 1338 1335 1332 1330 1327 1325 1322 1320 1317 1315 1312 1310 1308 1306 1304 1303 1301 1300 1299 1298 1297 1296 1296 1296 1296 1296 1297 1298 1299 1300 1301 1303 1305 1307 1310 1312 1315 1318 1322 1325 1329 1333 1337 1341 1345 1349 1354 1358 1363 1368 1372 1377 1382 1386 1391 1396 1400 1405 1409 1414 1418 1422 1426 1430 1433 1437 1440 1443 1445 1448 1450 1452 1454 1456 1457 1458 1459 1459 1460 1460 1459 1459 1458 1458 1456 1455 1454 1452 1451 1449 1447 1445 1442 1440 1438 1436 1433 1431 1429 1427 1425 1423 1421 1419 1418 1416 1415 1414 1414 1413 1413 1414 1414 1415 1416 1418 1420 1422 1425 1428 1431 1435 1439 1443 1448 1453 1459 1464 1471 1477 1484 1491 1498 1505 1513 1521 1529 1537 1545 1553 1561 1569 1577 1585 1593 1600 1608 1615 1621 1628 1634 1639 1644 1649 1653 1656 1659 1661 1662 1663 1663 1662 1660 1657 1653 1649 1643 1636 1629 1620 1610 1600 1588 1575 1561 1546 1530 1513 1495 1476 1456 1434 1412 1389 1365 1340 1314 1287 1259 1231 1202
-49 -41 -32 -23 -12 -1 10 22 35 49 62 77 92 107 122 138 154 171 187 204 221 238 255 272 289 306 323 340 356 373 389 405 421 437 453 468 483 498 512 527 541 554 568 581 594 606 618 630 642 653 664 675 686 696 706 716 726 735 745 754 763 772 781 789 798 806 814 823 831 839 847 855 863 870 878 886 894 902 909 917 925 933 940 948 955 963 971 978 985 993 1000 1007 1014 1021 1028 1035 1042 1048 1055 1061 1067 1073 1078 1084 1089 1094 1099 1103 1107 1111 1115 1118 1121 1124 1126 1129 1130 1132 1133 1134 1134 1135 1135 1134 1133 1132 1131 1129 1127 1125 1123 1120 1117 1114 1110 1107 1103 1099 1095 1090 1086 1081 1077 1072 1067 1062 1057 1053 1048 1043 1038 1034 1029 1025 1020 1016 1012 1008 1005 1001 998 995 993 990 988 986 984 983 982 981 981 981 981 981 982 983 985 986 988 991 993 996 999 1003 1006 1010 1015 1019 1024 1028 1033 1039 1044 1049 1055 1061 1066 1072 1078 1084 1090 1096 1102 1108 1115 1121 1127 1132 1138 1144 1150 1155 1161 1166 1171 1176 1181 1186 1191 1195 1200 1204 1208 1212 1215 1219 1222 1225 1228 1231 1234 1236 1239 1241 1243 1245 1247 1249 1251 1252 1254 1255 1257 1258 1260 1261 1262 1263 1265 1266 1267 1268 1270 1271 1272 1274 1275 1276 1278 1280 1281 1283 1285 1287 1289 1291 1293 1295 1297 1299 1302 1304 1307 1309 1312 1314 1317 1319 1322 1325 1327 1330 1333 1335 1338 1341 1343 1346 1348 1350 1352 1354 1356 1358 1360 1362 1363 1365 1366 1367 1368 1369 1369 1369 1370 1370 1370 1369 1369 1368 1367 1366 1365 1364 1362 1361 1359 1357 1355 1353 1351 1349 1346 1344 1341 1339 1336 1333 1331 1328 1325 1323 1320 1318 1315 1313 1311 1309 1307 1305 1303 1302 1300 1299 1298 1297 1297 1296 1296 1296 1296 1297 1298 1299 1300 1301 1303 1305 1307 1310 1312 1315 1318 1322 1325 1329 1333 1337 1341 1345 1349 1354 1358 1363 1368 1372 1377 1382 1387 1391 1396 1401 1405 1410 1414 1418 1423 1427 1430 1434 1437 1441 1444 1446 1449 1451 1454 1455 1457 1458 1460 1460 1461 1461 1461 1461 1461 1460 1460 1459 1457 1456 1455 1453 1451 1449 1447 1445 1443 1441 1438 1436 1434 1432 1430 1427 1426 1424 1422 1420 1419 1418 1417 1416 1416 1416 1416 1417 1417 1418 1420 1422 1424 1426 1429 1433 1436 1440 1444 1449 1454 1460 1465 1471 1478 1484 1491 1498 1505 1513 1520 1528 1536 1544 1552 1560 1568 1576 1583 1591 1598 1605 1612 1619 1625 1631 1636 1641 1646 1650 1653 1656 1657 1659 1659 1659 1658 1656 1653 1649 1644 1639 1632 1625 1616 1606 1596 1584 1571 1557 1542 1526 1509 1491 1472 1452 1430 1408 1385 1361 1336 1310 1283 1256 1228 1198
-52 -45 -36 -27 -17 -6 5 17 30 43 57 71 85 100 116 132 148 164 180 197 213 230 247 264 281 298 314 331 348 364 380 397 413 428 444 459 474 489 503 518 531 545 559 572 584 597 609 621 633 644 655 666 677 688 698 708 718 727 737 746 755 764 773 782 790 799 807 816 824 832 840 848 856 864 872 880 888 896 904 912 920 927 935 943 951 958 966 973 981 988 996 1003 1010 1017 1024 1031 1038 1044 1051 1057 1063 1069 1074 1080 1085 1090 1095 1099 1103 1107 1111 1114 1117 1120 1122 1124 1126 1127 1129 1129 1130 1130 1130 1129 1128 1127 1126 1124 1122 1120 1117 1115 1111 1108 1105 1101 1097 1093 1089 1084 1080 1075 1071 1066 1061 1056 1051 1046 1042 1037 1032 1027 1023 1018 1014 1010 1006 1002 999 995 992 989 986 984 982 980 978 977 976 975 975 975 975 976 977 978 979 981 983 986 988 991 995 998 1002 1006 1010 1015 1020 1024 1030 1035 1040 1046 1051 1057 1063 1069 1075 1081 1087 1094 1100 1106 1112 1118 1124 1130 1136 1142 1148 1154 1159 1165 1170 1175 1180 1185 1190 1194 1199 1203 1207 1211 1214 1218 1221 1225 1228 1231 1233 1236 1238 1241 1243 1245 1247 1249 1251 1252 1254 1255 1257 1258 1260 1261 1262 1263 1265 1266 1267 1269 1270 1271 1272 1274 1275 1277 1278 1280 1282 1283 1285 1287 1289 1291 1293 1295 1298 1300 1302 1305 1307 1310 1312 1315 1317 1320 1323 1325 1328 1331 1333 1336 1339 1341 1344 1346 1349 1351 1353 1355 1357 1359 1361 1363 1364 1365 1367 1368 1369 1369 1370 1370 1371 1371 1370 1370 1370 1369 1368 1367 1366 1365 1363 1362 1360 1358 1356 1354 1352 1349 1347 1344 1342 1339 1337 1334 1331 1329 1326 1323 1321 1318 1316 1313 1311 1309 1307 1305 1303 1302 1300 1299 1298 1297 1297 1296 1296 1296 1296 1297 1298 1299 1300 1301 1303 1305 1307 1310 1312 1315 1318 1322 1325 1329 1333 1336 1341 1345 1349 1354 1358 1363 1368 1373 1377 1382 1387 1392 1396 1401 1406 1410 1415 1419 1423 1427 1431 1435 1438 1442 1445 1448 1450 1453 1455 1457 1458 1460 1461 1462 1463 1463 1463 1463 1463 1462 1462 1461 1460 1458 1457 1455 1454 1452 1450 1448 1445 1443 1441 1439 1437 1434 1432 1430 1428 1426 1425 1423 1422 1421 1420 1419 1419 1418 1419 1419 1420 1421 1422 1424 1426 1428 1431 1434 1438 1442 1446 1450 1455 1460 1466 1472 1478 1484 1491 1498 1505 1512 1520 1528 1535 1543 1551 1559 1566 1574 1582 1589 1596 1603 1610 1616 1623 1628 1634 1638 1643 1646 1650 1652 1654 1655 1655 1655 1654 1652 1649 1645 1640 1635 1628 1620 1612 1602 1591 1579 1567 1553 1538 1522 1505 1487 1468 1448 1426 1404 1381 1357 1332 1306 1280 1252 1224 1195
-56 -49 -41 -32 -22 -11 0 12 24 37 51 65 79 94 109 125 141 157 173 189 206 223 239 256 273 289 306 323 339 356 372 388 404 419 435 450 465 480 494 508 522 536 549 562 575 588 600 612 624 635 647 658 668 679 689 699 709 719 729 738 747 756 765 774 783 791 800 808 817 825 833 842 850 858 866 874 882 890 898 906 914 922 930 938 945 953 961 968 976 984 991 998 1006 1013 1020 1027 1033 1040 1046 1052 1059 1064 1070 1075 1081 1086 1090 1095 1099 1103 1106 1110 1112 1115 1118 1120 1121 1123 1124 1124 1125 1125 1125 1124 1123 1122 1121 1119 1117 1114 1112 1109 1106 1102 1099 1095 1091 1087 1083 1078 1074 1069 1064 1060 1055 1050 1045 1040 1035 1030 1026 1021 1017 1012 1008 1004 1000 996 992 989 986 983 980 978 976 974 973 971 970 970 969 969 970 970 971 973 974 976 978 981 984 987 990 994 998 1002 1006 1011 1016 1021 1026 1031 1037 1042 1048 1054 1060 1066 1072 1079 1085 1091 1097 1104 1110 1116 1122 1128 1134 1140 1146 1152 1158 1163 1169 1174 1179 1184 1189 1193 1198 1202 1206 1210 1214 1217 1221 1224 1227 1230 1233 1236 1238 1240 1243 1245 1247 1249 1251 1252 1254 1255 1257 1258 1260 1261 1262 1264 1265 1266 1267 1269 1270 1271 1273 1274 1276 1277 1279 1280 1282 1284 1285 1287 1289 1291 1293 1296 1298 1300 1303 1305 1307 1310 1313 1315 1318 1320 1323 1326 1329 1331 1334 1337 1339 1342 1344 1347 1349 1351 1354 1356 1358 1360 1361 1363 1365 1366 1367 1368 1369 1370 1370 1371 1371 1371 1371 1371 1370 1370 1369 1368 1367 1365 1364 1362 1360 1358 1356 1354 1352 1350 1347 1345 1342 1340 1337 1334 1332 1329 1326 1324 1321 1318 1316 1314 1311 1309 1307 1305 1303 1302 1300 1299 1298 1297 1297 1296 1296 1296 1296 1297 1298 1299 1300 1301 1303 1305 1307 1309 1312 1315 1318 1321 1325 1328 1332 1336 1340 1345 1349 1354 1358 1363 1368 1372 1377 1382 1387 1392 1397 1401 1406 1411 1415 1419 1424 1428 1432 1435 1439 1442 1446 1449 1451 1454 1456 1458 1460 1461 1463 1464 1464 1465 1465 1465 1465 1465 1464 1463 1462 1461 1459 1458 1456 1454 1452 1450 1448 1446 1444 1442 1439 1437 1435 1433 1431 1429 1427 1426 1425 1423 1422 1422 1421 1421 1421 1421 1422 1423 1424 1426 1428 1430 1433 1436 1439 1443 1447 1451 1456 1461 1467 1472 1478 1485 1491 1498 1505 1512 1519 1527 1534 1542 1550 1557 1565 1572 1580 1587 1594 1601 1608 1614 1620 1625 1631 1635 1639 1643 1646 1648 1650 1651 1652 1651 1650 1648 1645 1641 1636 1630 1624 1616 1607 1597 1587 1575 1562 1548 1533 1517 1500 1482 1463 1443 1422 1400 1377 1353 1328 1303 1276 1249 1221 1192
-60 -53 -45 -36 -26 -16 -5 7 19 32 45 59 73 88 103 118 134 150 166 182 198 215 231 248 265 281 298 314 331 347 363 379 395 410 426 441 456 471 485 499 513 527 540 553 566 579 591 603 615 626 638 649 660 670 681 691 701 711 720 730 739 748 757 766 775 784 793 801 810 818 827 835 843 852 860 868 876 884 892 900 908 916 924 932 940 948 956 963 971 979 986 994 1001 1008 1015 1022 1029 1035 1042 1048 1054 1060 1065 1071 1076 1081 1086 1090 1094 1098 1102 1105 1108 1110 1113 1115 1116 1118 1119 1119 1120 1120 1119 1119 1118 1117 1115 1113 1111 1109 1106 1103 1100 1097 1093 1089 1085 1081 1077 1072 1068 1063 1058 1053 1048 1044 1039 1034 1029 1024 1019 1015 1010 1006 1002 997 993 990 986 983 980 977 974 972 970 968 967 966 965 964 964 964 964 965 966 968 969 971 974 976 979 982 986 990 994 998 1002 1007 1012 1017 1022 1028 1033 1039 1045 1051 1057 1063 1070 1076 1082 1089 1095 1102 1108 1114 1120 1127 1133 1139 1145 1151 1156 1162 1167 1173 1178 1183 1188 1192 1197 1201 1205 1209 1213 1217 1220 1224 1227 1230 1233 1235 1238 1240 1243 1245 1247 1249 1250 1252 1254 1255 1257 1258 1260 1261 1262 1264 1265 1266 1267 1269 1270 1271 1273 1274 1276 1277 1279 1280 1282 1284 1286 1287 1289 1291 1294 1296 1298 1300 1303 1305 1308 1310 1313 1315 1318 1321 1323 1326 1329 1331 1334 1337 1339 1342 1344 1347 1349 1352 1354 1356 1358 1360 1362 1363 1365 1366 1367 1369 1369 1370 1371 1371 1371 1371 1371 1371 1370 1370 1369 1368 1367 1366 1364 1362 1361 1359 1357 1355 1352 1350 1347 1345 1342 1340 1337 1334 1332 1329 1326 1324 1321 1318 1316 1314 1311 1309 1307 1305 1303 1302 1300 1299 1298 1297 1296 1296 1296 1296 1296 1297 1297 1298 1299 1301 1303 1305 1307 1309 1312 1315 1318 1321 1324 1328 1332 1336 1340 1344 1349 1353 1358 1363 1368 1372 1377 1382 1387 1392 1397 1402 1406 1411 1415 1420 1424 1428 1432 1436 1440 1443 1446 1449 1452 1455 1457 1459 1461 1463 1464 1465 1466 1467 1467 1467 1467 1467 1466 1465 1464 1463 1462 1460 1458 1457 1455 1453 1451 1449 1446 1444 1442 1440 1438 1436 1434 1432 1430 1429 1427 1426 1425 1424 1424 1423 1423 1424 1424 1425 1426 1428 1430 1432 1435 1437 1441 1444 1448 1453 1457 1462 1467 1473 1479 1485 1491 1498 1505 1512 1519 1526 1533 1541 1548 1556 1563 1571 1578 1585 1592 1599 1605 1611 1617 1622 1628 1632 1636 1640 1642 1645 1646 1647 1648 1647 1646 1643 1640 1636 1632 1626 1619 1611 1603 1593 1582 1570 1558 1544 1529 1513 1496 1478 1459 1439 1418 1396 1373 1349 1324 1299 1272 1245 1217 1188
-64 -57 -49 -40 -31 -20 -10 2 14 27 40 53 67 82 97 112 127 143 159 175 191 207 224 240 257 273 290 306 322 338 354 370 386 402 417 432 447 461 476 490 504 518 531 544 557 570 582 594 606 617 629 640 651 661 672 682 692 702 712 722 731 740 750 759 768 776 785 794 803 811 820 828 837 845 853 862 870 878 886 894 903 911 919 927 935 943 950 958 966 974 981 989 996 1003 1010 1017 1024 1031 1037 1043 1049 1055 1061 1066 1071 1076 1081 1085 1089 1093 1097 1100 1103 1105 1108 1110 1111 1113 1114 1114 1114 1114 1114 1113 1112 1111 1109 1108 1105 1103 1100 1097 1094 1091 1087 1083 1079 1075 1070 1066 1061 1057 1052 1047 1042 1037 1032 1027 1023 1018 1013 1008 1004 999 995 991 987 984 980 977 974 971 968 966 964 962 961 960 959 959 959 959 959 960 961 963 965 967 969 972 975 978 982 985 990 994 999 1003 1008 1014 1019 1025 1030 1036 1042 1048 1055 1061 1067 1074 1080 1087 1093 1100 1106 1112 1119 1125 1131 1137 1143 1149 1155 1161 1166 1172 1177 1182 1187 1191 1196 1200 1205 1209 1213 1216 1220 1223 1226 1229 1232 1235 1238 1240 1242 1244 1246 1248 1250 1252 1254 1255 1257 1258 1260 1261 1262 1264 1265 1266 1267 1269 1270 1271 1273 1274 1276 1277 1279 1280 1282 1284 1286 1287 1289 1291 1294 1296 1298 1300 1303 1305 1308 1310 1313 1315 1318 1321 1323 1326 1329 1331 1334 1337 1339 1342 1344 1347 1349 1352 1354 1356 1358 1360 1362 1363 1365 1366 1367 1369 1369 1370 1371 1371 1371 1371 1371 1371 1371 1370 1369 1368 1367 1366 1364 1362 1361 1359 1357 1354 1352 1350 1347 1345 1342 1340 1337 1334 1332 1329 1326 1323 1321 1318 1316 1313 1311 1309 1307 1305 1303 1301 1300 1299 1298 1297 1296 1296 1295 1295 1296 1296 1297 1298 1299 1300 1302 1304 1306 1309 1311 1314 1317 1320 1324 1328 1332 1336 1340 1344 1349 1353 1358 1363 1367 1372 1377 1382 1387 1392 1397 1402 1406 1411 1416 1420 1425 1429 1433 1437 1440 1444 1447 1450 1453 1456 1458 1461 1462 1464 1466 1467 1468 1468 1469 1469 1469 1469 1468 1467 1466 1465 1464 1463 1461 1459 1457 1455 1453 1451 1449 1447 1445 1443 1441 1438 1437 1435 1433 1431 1430 1429 1428 1427 1426 1426 1426 1426 1426 1427 1428 1430 1432 1434 1436 1439 1442 1446 1449 1454 1458 1463 1468 1473 1479 1485 1491 1498 1504 1511 1518 1525 1532 1540 1547 1554 1562 1569 1576 1583 1590 1596 1603 1609 1614 1619 1624 1629 1633 1636 1639 1641 1642 1643 1643 1643 1641 1639 1636 1632 1627 1621 1614 1607 1598 1588 1578 1566 1553 1539 1524 1508 1491 1474 1455 1435 1414 1392 1369 1345 1320 1295 1269 1241 1213 1185
-67 -60 -52 -44 -35 -25 -14 -3 9 21 34 48 62 76 90 105 121 136 152 168 184 200 216 233 249 265 282 298 314 330 346 362 377 393 408 423 438 452 467 481 495 508 522 535 548 560 573 585 597 608 620 631 642 653 663 674 684 694 704 713 723 732 742 751 760 769 778 787 795 804 813 821 830 838 847 855 863 872 880 888 897 905 913 921 929 937 945 953 961 968 976 983 991 998 1005 1012 1019 1026 1032 1038 1044 1050 1056 1061 1066 1071 1076 1080 1084 1088 1092 1095 1098 1100 1102 1104 1106 1107 1108 1109 1109 1109 1108 1108 1107 1105 1104 1102 1099 1097 1094 1091 1088 1084 1081 1077 1073 1068 1064 1060 1055 1050 1045 1041 1036 1031 1026 1021 1016 1011 1007 1002 997 993 989 985 981 977 974 971 968 965 962 960 958 957 955 954 954 953 953 954 954 955 956 958 960 962 965 967 970 974 978 981 986 990 995 1000 1005 1010 1016 1022 1027 1033 1040 1046 1052 1058 1065 1071 1078 1085 1091 1098 1104 1111 1117 1123 1130 1136 1142 1148 1154 1160 1165 1171 1176 1181 1186 1191 1195 1200 1204 1208 1212 1216 1219 1223 1226 1229 1232 1235 1237 1240 1242 1244 1246 1248 1250 1252 1253 1255 1257 1258 1259 1261 1262 1263 1265 1266 1267 1269 1270 1271 1273 1274 1275 1277 1278 1280 1282 1284 1285 1287 1289 1291 1293 1295 1298 1300 1302 1305 1307 1310 1312 1315 1318 1320 1323 1326 1328 1331 1334 1336 1339 1342 1344 1347 1349 1351 1354 1356 1358 1360 1361 1363 1365 1366 1367 1368 1369 1370 1371 1371 1371 1371 1371 1371 1370 1370 1369 1368 1367 1365 1364 1362 1360 1358 1356 1354 1352 1350 1347 1345 1342 1339 1337 1334 1331 1328 1326 1323 1320 1318 1315 1313 1311 1308 1306 1304 1302 1301 1299 1298 1297 1296 1295 1295 1295 1295 1295 1295 1296 1297 1298 1300 1301 1303 1306 1308 1311 1313 1317 1320 1323 1327 1331 1335 1339 1344 1348 1353 1357 1362 1367 1372 1377 1382 1387 1392 1397 1402 1407 1411 1416 1421 1425 1429 1433 1437 1441 1445 1448 1451 1454 1457 1459 1462 1464 1465 1467 1468 1469 1470 1470 1471 1471 1471 1470 1469 1469 1468 1466 1465 1463 1462 1460 1458 1456 1454 1452 1450 1447 1445 1443 1441 1439 1437 1436 1434 1433 1431 1430 1429 1429 1428 1428 1428 1429 1429 1430 1432 1433 1435 1438 1441 1444 1447 1451 1455 1459 1464 1469 1474 1479 1485 1491 1498 1504 1511 1518 1524 1531 1539 1546 1553 1560 1567 1574 1581 1587 1594 1600 1606 1611 1616 1621 1625 1629 1632 1635 1637 1639 1639 1639 1639 1637 1635 1631 1627 1622 1617 1610 1602 1593 1584 1573 1561 1548 1534 1520 1504 1487 1469 1450 1430 1409 1387 1365 1341 1316 1291 1265 1238 1210 1181
-70 -64 -56 -48 -39 -29 -19 -8 4 16 29 42 56 70 84 99 114 130 145 161 177 193 209 225 241 257 273 290 306 322 337 353 369 384 399 414 429 443 458 472 486 499 513 526 539 551 564 576 588 599 611 622 633 644 655 665 675 685 695 705 715 724 734 743 752 761 770 779 788 797 805 814 823 831 840 848 857 865 874 882 890 899 907 915 923 931 939 947 955 963 970 978 985 993 1000 1007 1014 1020 1027 1033 1039 1045 1051 1056 1061 1066 1071 1075 1079 1083 1086 1090 1092 1095 1097 1099 1100 1102 1103 1103 1103 1103 1103 1102 1101 1099 1098 1096 1093 1091 1088 1085 1082 1078 1074 1070 1066 1062 1058 1053 1048 1044 1039 1034 1029 1024 1019 1014 1010 1005 1000 996 991 987 983 979 975 971 968 965 962 959 957 954 953 951 950 949 948 948 948 948 949 950 952 953 955 957 960 963 966 970 974 978 982 987 991 996 1002 1007 1013 1019 1025 1031 1037 1043 1050 1056 1063 1069 1076 1083 1089 1096 1103 1109 1116 1122 1128 1135 1141 1147 1153 1159 1164 1170 1175 1180 1185 1190 1195 1199 1204 1208 1212 1215 1219 1222 1226 1229 1232 1234 1237 1240 1242 1244 1246 1248 1250 1252 1253 1255 1256 1258 1259 1261 1262 1263 1264 1266 1267 1268 1270 1271 1272 1274 1275 1277 1278 1280 1281 1283 1285 1287 1289 1291 1293 1295 1297 1300 1302 1304 1307 1309 1312 1315 1317 1320 1323 1325 1328 1331 1333 1336 1339 1341 1344 1346 1349 1351 1353 1355 1357 1359 1361 1363 1364 1365 1367 1368 1369 1369 1370 1370 1371 1371 1371 1370 1370 1369 1368 1367 1366 1365 1363 1362 1360 1358 1356 1354 1351 1349 1347 1344 1341 1339 1336 1333 1331 1328 1325 1322 1320 1317 1315 1312 1310 1308 1306 1304 1302 1300 1299 1297 1296 1295 1295 1294 1294 1294 1294 1295 1295 1296 1297 1299 1301 1303 1305 1307 1310 1313 1316 1319 1323 1326 1330 1334 1339 1343 1348 1352 1357 1362 1367 1372 1377 1382 1387 1392 1397 1402 1407 1411 1416 1421 1425 1430 1434 1438 1442 1445 1449 1452 1455 1458 1461 1463 1465 1467 1468 1470 1471 1472 1472 1473 1473 1473 1472 1472 1471 1470 1469 1467 1466 1464 1462 1461 1459 1457 1454 1452 1450 1448 1446 1444 1442 1440 1438 1437 1435 1434 1433 1432 1431 1431 1430 1431 1431 1432 1432 1434 1435 1437 1439 1442 1445 1448 1452 1456 1460 1464 1469 1474 1480 1485 1491 1497 1504 1510 1517 1524 1530 1537 1544 1551 1558 1565 1572 1578 1585 1591 1597 1603 1608 1613 1618 1622 1626 1629 1631 1633 1634 1635 1635 1634 1633 1630 1627 1623 1618 1612 1605 1597 1588 1579 1568 1556 1543 1530 1515 1499 1482 1464 1445 1426 1405 1383 1360 1337 1312 1287 1261 1234 1206 1178
-74 -67 -60 -52 -43 -33 -23 -12 -1 11 24 37 50 64 78 93 108 123 138 154 170 186 201 217 233 250 266 282 297 313 329 345 360 375 390 405 420 434 449 463 477 490 504 517 530 542 555 567 579 590 602 613 624 635 646 656 667 677 687 697 706 716 726 735 744 753 762 772 780 789 798 807 816 824 833 842 850 859 867 876 884 893 901 909 917 925 934 942 949 957 965 973 980 987 995 1002 1008 1015 1022 1028 1034 1040 1046 1051 1056 1061 1066 1070 1074 1078 1081 1084 1087 1089 1092 1093 1095 1096 1097 1097 1097 1097 1097 1096 1095 1093 1092 1090 1087 1085 1082 1079 1075 1072 1068 1064 1060 1056 1051 1047 1042 1037 1032 1027 1023 1018 1013 1008 1003 998 994 989 985 980 976 972 969 965 962 959 956 953 951 949 947 945 944 944 943 943 943 943 944 945 947 949 951 953 956 959 962 966 970 974 978 983 988 993 999 1004 1010 1016 1022 1028 1034 1041 1047 1054 1061 1067 1074 1081 1088 1094 1101 1108 1114 1121 1127 1134 1140 1146 1152 1158 1163 1169 1174 1180 1185 1190 1194 1199 1203 1207 1211 1215 1219 1222 1225 1228 1231 1234 1237 1239 1242 1244 1246 1248 1250 1251 1253 1255 1256 1258 1259 1260 1262 1263 1264 1265 1267 1268 1269 1270 1272 1273 1275 1276 1278 1279 1281 1283 1284 1286 1288 1290 1292 1294 1297 1299 1301 1304 1306 1309 1311 1314 1316 1319 1322 1324 1327 1330 1332 1335 1338 1340 1343 1345 1348 1350 1352 1354 1356 1358 1360 1362 1363 1365 1366 1367 1368 1369 1369 1370 1370 1370 1370 1369 1369 1368 1367 1366 1365 1364 1362 1361 1359 1357 1355 1353 1351 1348 1346 1343 1341 1338 1335 1333 1330 1327 1324 1322 1319 1316 1314 1311 1309 1307 1305 1303 1301 1299 1298 1296 1295 1294 1294 1293 1293 1293 1293 1294 1294 1295 1297 1298 1300 1302 1304 1306 1309 1312 1315 1318 1322 1326 1330 1334 1338 1342 1347 1352 1356 1361 1366 1371 1376 1381 1386 1392 1397 1402 1407 1411 1416 1421 1426 1430 1434 1438 1442 1446 1450 1453 1456 1459 1462 1464 1466 1468 1470 1471 1472 1473 1474 1474 1475 1474 1474 1474 1473 1472 1471 1470 1468 1467 1465 1463 1461 1459 1457 1455 1453 1451 1449 1447 1445 1443 1441 1439 1438 1437 1435 1434 1434 1433 1433 1433 1433 1434 1435 1436 1437 1439 1441 1444 1446 1449 1453 1457 1461 1465 1470 1475 1480 1485 1491 1497 1503 1510 1516 1523 1529 1536 1543 1550 1556 1563 1570 1576 1582 1588 1594 1600 1605 1610 1614 1618 1622 1625 1627 1629 1630 1631 1631 1630 1628 1626 1622 1618 1613 1607 1600 1592 1584 1574 1563 1551 1539 1525 1510 1494 1477 1460 1441 1421 1400 1379 1356 1333 1308 1283 1257 1230 1202 1174
-77 -70 -63 -55 -47 -37 -27 -17 -5 6 19 32 45 59 73 87 102 117 132 147 163 178 194 210 226 242 258 274 289 305 321 336 351 367 382 396 411 426 440 454 468 481 495 508 520 533 546 558 570 581 593 604 615 626 637 648 658 668 678 688 698 708 717 727 736 746 755 764 773 782 791 800 809 817 826 835 844 852 861 869 878 886 895 903 911 920 928 936 944 952 959 967 974 982 989 996 1003 1010 1016 1022 1029 1034 1040 1045 1051 1055 1060 1064 1068 1072 1075 1078 1081 1084 1086 1088 1089 1090 1091 1091 1091 1091 1091 1090 1089 1087 1085 1083 1081 1078 1075 1072 1069 1065 1061 1057 1053 1049 1044 1040 1035 1030 1026 1021 1016 1011 1006 1001 997 992 987 983 978 974 970 966 962 959 956 953 950 947 945 943 941 940 939 938 938 938 938 939 939 941 942 944 946 949 952 955 958 962 966 970 975 980 985 990 996 1001 1007 1013 1019 1026 1032 1039 1045 1052 1059 1066 1072 1079 1086 1093 1100 1106 1113 1120 1126 1133 1139 1145 1151 1157 1163 1168 1174 1179 1184 1189 1194 1198 1203 1207 1211 1215 1218 1222 1225 1228 1231 1234 1236 1239 1241 1243 1246 1248 1249 1251 1253 1254 1256 1257 1259 1260 1261 1262 1264 1265 1266 1267 1269 1270 1271 1273 1274 1275 1277 1279 1280 1282 1284 1285 1287 1289 1291 1294 1296 1298 1300 1303 1305 1308 1310 1313 1315 1318 1321 1323 1326 1329 1331 1334 1337 1339 1342 1344 1347 1349 1351 1353 1355 1357 1359 1361 1362 1364 1365 1366 1367 1368 1368 1369 1369 1369 1369 1368 1368 1367 1366 1365 1364 1363 1361 1360 1358 1356 1354 1352 1350 1347 1345 1342 1340 1337 1334 1331 1329 1326 1323 1321 1318 1315 1313 1310 1308 1306 1304 1302 1300 1298 1297 1295 1294 1293 1293 1292 1292 1292 1292 1293 1293 1294 1295 1297 1299 1301 1303 1305 1308 1311 1314 1317 1321 1325 1329 1333 1337 1342 1346 1351 1356 1361 1366 1371 1376 1381 1386 1391 1396 1401 1407 1411 1416 1421 1426 1430 1435 1439 1443 1447 1450 1454 1457 1460 1463 1465 1467 1469 1471 1473 1474 1475 1476 1476 1476 1476 1476 1476 1475 1474 1473 1472 1471 1469 1467 1466 1464 1462 1460 1458 1456 1454 1451 1449 1447 1446 1444 1442 1441 1439 1438 1437 1436 1436 1435 1435 1435 1436 1437 1438 1439 1441 1443 1445 1448 1451 1454 1458 1461 1466 1470 1475 1480 1485 1491 1497 1503 1509 1515 1522 1528 1535 1541 1548 1554 1561 1567 1574 1580 1586 1591 1597 1602 1607 1611 1615 1618 1621 1623 1625 1626 1627 1626 1625 1623 1621 1618 1613 1608 1602 1595 1587 1579 1569 1558 1546 1534 1520 1505 1489 1473 1455 1436 1416 1396 1374 1352 1328 1304 1279 1253 1226 1199 1171
-79 -73 -66 -59 -50 -41 -31 -21 -10 2 14 27 40 53 67 81 96 110 125 141 156 171 187 203 218 234 250 266 281 297 312 328 343 358 373 388 402 417 431 445 459 472 486 499 511 524 537 549 561 572 584 595 607 618 628 639 649 660 670 680 690 700 709 719 728 738 747 756 765 775 784 793 802 810 819 828 837 846 854 863 871 880 888 897 905 913 922 930 938 946 953 961 969 976 983 990 997 1004 1011 1017 1023 1029 1034 1040 1045 1050 1054 1059 1063 1066 1070 1073 1075 1078 1080 1082 1083 1084 1085 1085 1085 1085 1084 1083 1082 1081 1079 1077 1074 1072 1069 1066 1062 1059 1055 1051 1047 1042 1038 1033 1029 1024 1019 1014 1009 1004 1000 995 990 985 981 976 972 968 964 960 956 953 949 947 944 941 939 937 936 935 934 933 933 933 933 934 935 936 938 940 942 945 948 951 955 958 963 967 972 977 982 987 993 999 1005 1011 1017 1023 1030 1037 1043 1050 1057 1064 1071 1078 1085 1092 1098 1105 1112 1119 1125 1132 1138 1144 1150 1156 1162 1168 1173 1179 1184 1189 1193 1198 1202 1207 1211 1214 1218 1221 1225 1228 1231 1234 1236 1239 1241 1243 1245 1247 1249 1251 1252 1254 1255 1257 1258 1259 1261 1262 1263 1264 1266 1267 1268 1269 1271 1272 1273 1275 1276 1278 1279 1281 1283 1285 1286 1288 1290 1292 1295 1297 1299 1302 1304 1306 1309 1312 1314 1317 1319 1322 1325 1327 1330 1333 1335 1338 1340 1343 1345 1348 1350 1352 1354 1356 1358 1359 1361 1362 1363 1365 1365 1366 1367 1367 1367 1367 1367 1367 1367 1366 1365 1364 1363 1362 1360 1359 1357 1355 1353 1351 1348 1346 1343 1341 1338 1336 1333 1330 1327 1325 1322 1319 1317 1314 1311 1309 1307 1304 1302 1300 1298 1297 1295 1294 1293 1292 1291 1291 1291 1291 1291 1291 1292 1293 1294 1296 1297 1299 1302 1304 1307 1310 1313 1316 1320 1324 1328 1332 1336 1341 1345 1350 1355 1360 1365 1370 1375 1381 1386 1391 1396 1401 1406 1411 1416 1421 1426 1431 1435 1439 1443 1447 1451 1455 1458 1461 1464 1466 1469 1471 1473 1474 1476 1477 1477 1478 1478 1478 1478 1478 1477 1477 1476 1474 1473 1472 1470 1468 1466 1464 1462 1460 1458 1456 1454 1452 1450 1448 1446 1445 1443 1442 1440 1439 1439 1438 1437 1437 1437 1438 1439 1439 1441 1442 1444 1446 1449 1452 1455 1458 1462 1466 1471 1475 1480 1485 1491 1496 1502 1508 1514 1521 1527 1533 1540 1546 1553 1559 1565 1571 1577 1583 1588 1594 1599 1603 1607 1611 1614 1617 1619 1621 1622 1622 1622 1621 1619 1616 1613 1608 1603 1597 1590 1582 1574 1564 1553 1541 1529 1515 1500 1484 1468 1450 1431 1412 1391 1370 1347 1324 1300 1275 1249 1222 1195 1167
-82 -76 -70 -62 -54 -45 -35 -25 -14 -3 9 22 34 48 61 75 90 104 119 134 149 165 180 196 211 227 242 258 273 289 304 320 335 350 365 379 394 408 422 436 450 463 477 490 503 515 528 540 552 564 575 587 598 609 620 630 641 651 662 672 682 691 701 711 720 730 739 749 758 767 776 785 794 803 812 821 830 839 847 856 865 873 882 890 899 907 915 924 932 940 947 955 963 970 977 985 991 998 1005 1011 1017 1023 1029 1034 1039 1044 1048 1053 1057 1060 1064 1067 1069 1072 1074 1075 1077 1078 1079 1079 1079 1079 1078 1077 1076 1074 1072 1070 1068 1065 1062 1059 1055 1052 1048 1044 1040 1035 1031 1026 1022 1017 1012 1007 1002 998 993 988 983 979 974 970 965 961 957 954 950 947 943 941 938 936 934 932 930 929 928 928 928 928 928 929 930 932 933 935 938 941 944 947 951 955 959 964 969 974 979 984 990 996 1002 1008 1015 1021 1028 1035 1042 1048 1055 1062 1069 1076 1083 1090 1097 1104 1111 1118 1124 1131 1137 1144 1150 1156 1162 1167 1173 1178 1183 1188 1193 1198 1202 1206 1210 1214 1218 1221 1224 1228 1230 1233 1236 1238 1241 1243 1245 1247 1249 1250 1252 1253 1255 1256 1257 1259 1260 1261 1262 1264 1265 1266 1267 1268 1270 1271 1272 1274 1275 1277 1278 1280 1282 1283 1285 1287 1289 1291 1293 1296 1298 1300 1303 1305 1308 1310 1313 1315 1318 1321 1323 1326 1329 1331 1334 1336 1339 1341 1344 1346 1348 1350 1352 1354 1356 1358 1359 1361 1362 1363 1364 1365 1365 1366 1366 1366 1366 1365 1365 1364 1364 1363 1361 1360 1359 1357 1355 1353 1351 1349 1347 1344 1342 1339 1337 1334 1331 1329 1326 1323 1320 1318 1315 1313 1310 1308 1305 1303 1301 1299 1297 1295 1294 1293 1291 1291 1290 1289 1289 1289 1289 1290 1291 1292 1293 1294 1296 1298 1300 1303 1306 1309 1312 1315 1319 1323 1327 1331 1335 1340 1345 1349 1354 1359 1364 1370 1375 1380 1385 1391 1396 1401 1406 1411 1416 1421 1426 1431 1435 1440 1444 1448 1452 1455 1459 1462 1465 1467 1470 1472 1474 1476 1477 1478 1479 1480 1480 1480 1480 1480 1479 1479 1478 1477 1475 1474 1472 1471 1469 1467 1465 1463 1461 1459 1457 1455 1453 1451 1449 1447 1446 1444 1443 1442 1441 1440 1440 1440 1440 1440 1440 1441 1443 1444 1446 1448 1450 1453 1456 1459 1463 1467 1471 1476 1480 1485 1491 1496 1502 1507 1513 1519 1526 1532 1538 1544 1551 1557 1563 1569 1575 1580 1586 1591 1595 1600 1604 1607 1610 1613 1615 1617 1617 1618 1617 1616 1614 1611 1608 1604 1598 1592 1585 1577 1569 1559 1548 1536 1524 1510 1495 1480 1463 1445 1427 1407 1387 1365 1343 1320 1296 1271 1245 1218 1191 1163
-85 -79 -73 -65 -57 -49 -39 -29 -18 -7 4 17 29 42 56 70 84 98 113 128 143 158 173 189 204 219 235 250 266 281 296 311 326 341 356 371 385 399 414 427 441 455 468 481 494 506 519 531 543 555 566 578 589 600 611 622 632 643 653 663 673 683 693 703 712 722 731 741 750 760 769 778 787 796 805 814 823 832 841 849 858 867 875 884 893 901 909 917 926 934 941 949 957 964 971 979 986 992 999 1005 1011 1017 1023 1028 1033 1038 1042 1047 1051 1054 1058 1061 1063 1066 1068 1069 1071 1071 1072 1072 1072 1072 1071 1070 1069 1068 1066 1063 1061 1058 1055 1052 1049 1045 1041 1037 1033 1029 1024 1020 1015 1010 1005 1001 996 991 986 981 977 972 968 963 959 955 951 947 944 941 937 935 932 930 928 926 925 924 923 923 923 923 923 924 926 927 929 931 934 937 940 944 947 952 956 961 966 971 976 982 988 994 1000 1006 1013 1019 1026 1033 1040 1047 1054 1061 1068 1075 1082 1089 1096 1103 1110 1117 1124 1130 1137 1143 1149 1155 1161 1167 1172 1178 1183 1188 1193 1197 1202 1206 1210 1214 1217 1221 1224 1227 1230 1233 1236 1238 1240 1242 1244 1246 1248 1250 1251 1253 1254 1256 1257 1258 1259 1260 1262 1263 1264 1265 1266 1267 1269 1270 1271 1272 1274 1275 1277 1278 1280 1282 1284 1286 1288 1290 1292 1294 1296 1299 1301 1303 1306 1308 1311 1314 1316 1319 1321 1324 1327 1329 1332 1334 1337 1339 1342 1344 1346 1348 1350 1352 1354 1356 1357 1359 1360 1361 1362 1363 1363 1364 1364 1364 1364 1364 1363 1363 1362 1361 1360 1358 1357 1355 1353 1351 1349 1347 1345 1343 1340 1338 1335 1332 1330 1327 1324 1322 1319 1316 1313 1311 1308 1306 1304 1301 1299 1297 1295 1294 1292 1291 1290 1289 1288 1288 1288 1288 1288 1288 1289 1290 1291 1293 1295 1297 1299 1302 1304 1307 1311 1314 1318 1322 1326 1330 1334 1339 1344 1349 1353 1359 1364 1369 1374 1380 1385 1390 1396 1401 1406 1411 1416 1421 1426 1431 1436 1440 1444 1449 1452 1456 1460 1463 1466 1469 1471 1473 1475 1477 1479 1480 1481 1482 1482 1482 1482 1482 1482 1481 1480 1479 1478 1476 1475 1473 1472 1470 1468 1466 1464 1462 1460 1458 1456 1454 1452 1450 1448 1447 1446 1444 1443 1443 1442 1442 1442 1442 1442 1443 1444 1446 1447 1449 1452 1454 1457 1460 1464 1467 1471 1476 1480 1485 1490 1496 1501 1507 1512 1518 1524 1530 1536 1542 1549 1555 1560 1566 1572 1577 1582 1587 1592 1596 1600 1604 1607 1609 1611 1612 1613 1613 1613 1611 1609 1607 1603 1599 1593 1587 1580 1572 1563 1554 1543 1531 1519 1505 1490 1475 1458 1440 1422 1402 1382 1361 1338 1315 1291 1266 1241 1214 1187 1160
-87 -82 -76 -68 -61 -52 -43 -33 -23 -12 0 12 24 37 51 64 78 92 107 121 136 151 166 182 197 212 227 243 258 273 288 303 318 333 348 362 377 391 405 419 432 446 459 472 485 497 510 522 534 546 558 569 580 591 602 613 624 634 645 655 665 675 685 695 705 714 724 733 743 752 761 771 780 789 798 807 816 825 834 843 852 860 869 878 886 894 903 911 919 927 935 943 951 958 965 973 979 986 993 999 1005 1011 1017 1022 1027 1032 1036 1041 1044 1048 1051 1054 1057 1059 1061 1063 1064 1065 1066 1066 1066 1065 1065 1064 1062 1061 1059 1057 1054 1051 1048 1045 1042 1038 1034 1030 1026 1022 1017 1013 1008 1003 998 994 989 984 979 975 970 965 961 957 953 949 945 941 938 934 932 929 926 924 922 921 920 919 918 918 918 918 919 920 921 923 925 927 930 933 936 940 944 948 953 958 963 968 973 979 985 991 998 1004 1011 1017 1024 1031 1038 1045 1052 1060 1067 1074 1081 1088 1095 1102 1109 1116 1123 1130 1136 1142 1149 1155 1161 1166 1172 1177 1182 1187 1192 1197 1201 1206 1210 1213 1217 1221 1224 1227 1230 1233 1235 1238 1240 1242 1244 1246 1247 1249 1251 1252 1253 1255 1256 1257 1258 1259 1261 1262 1263 1264 1265 1266 1267 1269 1270 1271 1272 1274 1275 1277 1279 1280 1282 1284 1286 1288 1290 1292 1294 1297 1299 1301 1304 1306 1309 1311 1314 1317 1319 1322 1325 1327 1330 1332 1335 1337 1340 1342 1344 1346 1348 1350 1352 1354 1355 1356 1358 1359 1360 1360 1361 1362 1362 1362 1362 1361 1361 1360 1360 1359 1357 1356 1355 1353 1351 1349 1347 1345 1343 1341 1338 1336 1333 1330 1328 1325 1322 1320 1317 1314 1312 1309 1306 1304 1302 1299 1297 1295 1294 1292 1291 1289 1288 1287 1287 1286 1286 1286 1286 1287 1288 1289 1290 1291 1293 1295 1298 1300 1303 1306 1309 1313 1316 1320 1324 1329 1333 1338 1343 1348 1353 1358 1363 1368 1374 1379 1384 1390 1395 1401 1406 1411 1416 1421 1426 1431 1436 1441 1445 1449 1453 1457 1460 1464 1467 1470 1472 1475 1477 1479 1480 1482 1483 1483 1484 1484 1484 1484 1484 1483 1482 1481 1480 1479 1477 1476 1474 1472 1470 1468 1466 1464 1462 1460 1458 1456 1454 1453 1451 1449 1448 1447 1446 1445 1444 1444 1444 1444 1444 1445 1446 1447 1449 1451 1453 1455 1458 1461 1464 1468 1472 1476 1480 1485 1490 1495 1500 1506 1511 1517 1523 1529 1535 1541 1547 1552 1558 1564 1569 1574 1579 1584 1589 1593 1596 1600 1603 1605 1607 1608 1609 1609 1608 1607 1605 1602 1598 1594 1588 1582 1575 1567 1558 1549 1538 1526 1513 1500 1485 1470 1453 1435 1417 1398 1377 1356 1334 1311 1287 1262 1237 1211 1184 1156
-90 -85 -78 -71 -64 -55 -46 -37 -27 -16 -4 7 20 32 45 59 73 87 101 115 130 145 160 175 190 205 220 235 251 266 281 296 310 325 340 354 368 382 396 410 424 437 450 463 476 489 501 513 525 537 549 560 572 583 594 605 615 626 636 647 657 667 677 687 697 706 716 725 735 744 754 763 772 782 791 800 809 818 827 836 845 854 862 871 880 888 896 905 913 921 929 937 944 952 959 966 973 980 987 993 999 1005 1010 1016 1021 1026 1030 1034 1038 1042 1045 1048 1050 1053 1055 1056 1057 1058 1059 1059 1059 1059 1058 1057 1055 1054 1052 1050 1047 1044 1041 1038 1035 1031 1027 1023 1019 1015 1010 1006 1001 996 992 987 982 977 973 968 963 959 954 950 946 942 938 935 932 928 926 923 921 919 917 915 914 913 913 913 913 913 914 915 917 919 921 923 926 929 933 937 941 945 950 955 960 965 971 977 983 989 995 1002 1009 1016 1023 1030 1037 1044 1051 1058 1066 1073 1080 1087 1094 1102 1109 1115 1122 1129 1135 1142 1148 1154 1160 1166 1172 1177 1182 1187 1192 1197 1201 1205 1209 1213 1217 1220 1223 1226 1229 1232 1235 1237 1239 1241 1243 1245 1247 1248 1250 1251 1253 1254 1255 1256 1257 1258 1259 1260 1262 1263 1264 1265 1266 1267 1268 1270 1271 1272 1274 1275 1277 1278 1280 1282 1284 1286 1288 1290 1292 1295 1297 1299 1302 1304 1307 1309 1312 1314 1317 1320 1322 1325 1327 1330 1332 1335 1337 1339 1342 1344 1346 1348 1349 1351 1353 1354 1355 1356 1357 1358 1359 1359 1359 1359 1359 1359 1359 1358 1357 1356 1355 1354 1352 1351 1349 1347 1345 1343 1341 1338 1336 1333 1331 1328 1326 1323 1320 1317 1315 1312 1309 1307 1304 1302 1300 1297 1295 1293 1292 1290 1289 1287 1286 1285 1285 1284 1284 1284 1285 1285 1286 1287 1288 1290 1292 1294 1296 1299 1301 1305 1308 1311 1315 1319 1323 1328 1332 1337 1342 1347 1352 1357 1362 1368 1373 1378 1384 1389 1395 1400 1406 1411 1416 1422 1427 1432 1436 1441 1445 1450 1454 1458 1461 1465 1468 1471 1474 1476 1478 1480 1482 1483 1484 1485 1486 1486 1486 1486 1486 1485 1485 1484 1483 1481 1480 1478 1477 1475 1473 1471 1469 1467 1465 1463 1461 1459 1457 1455 1454 1452 1451 1449 1448 1447 1447 1446 1446 1446 1446 1447 1448 1449 1450 1452 1454 1456 1459 1462 1465 1468 1472 1476 1480 1485 1490 1495 1500 1505 1510 1516 1522 1527 1533 1539 1544 1550 1556 1561 1566 1571 1576 1581 1585 1589 1593 1596 1599 1601 1603 1604 1604 1604 1603 1602 1600 1597 1593 1589 1583 1577 1570 1562 1553 1543 1533 1521 1508 1495 1480 1465 1448 1431 1412 1393 1373 1351 1329 1306 1283 1258 1233 1207 1180 1152
-92 -87 -81 -74 -67 -59 -50 -40 -30 -20 -9 3 15 28 40 54 67 81 95 109 124 138 153 168 183 198 213 228 243 258 273 288 303 317 332 346 360 374 388 402 415 429 442 455 468 480 493 505 517 529 540 552 563 574 585 596 607 618 628 638 649 659 669 679 689 698 708 718 727 737 746 756 765 774 784 793 802 811 820 829 838 847 856 864 873 881 890 898 906 915 923 930 938 946 953 960 967 974 980 987 993 999 1004 1009 1014 1019 1024 1028 1032 1035 1038 1041 1044 1046 1048 1049 1051 1052 1052 1052 1052 1052 1051 1050 1049 1047 1045 1043 1040 1037 1034 1031 1027 1024 1020 1016 1012 1007 1003 998 994 989 985 980 975 970 966 961 957 952 948 944 940 936 932 929 925 922 920 917 915 913 911 910 909 908 908 908 908 909 910 911 913 915 917 920 923 926 929 933 938 942 947 952 957 963 968 974 981 987 993 1000 1007 1014 1021 1028 1035 1043 1050 1057 1065 1072 1079 1087 1094 1101 1108 1115 1122 1128 1135 1141 1148 1154 1160 1166 1171 1177 1182 1187 1192 1196 1201 1205 1209 1213 1216 1220 1223 1226 1229 1232 1234 1236 1239 1241 1243 1244 1246 1248 1249 1250 1252 1253 1254 1255 1256 1257 1258 1259 1260 1261 1262 1263 1264 1265 1267 1268 1269 1270 1272 1273 1275 1276 1278 1280 1282 1284 1286 1288 1290 1292 1294 1297 1299 1302 1304 1307 1309 1312 1314 1317 1319 1322 1325 1327 1330 1332 1334 1337 1339 1341 1343 1345 1347 1348 1350 1351 1352 1354 1355 1355 1356 1356 1357 1357 1357 1356 1356 1355 1355 1354 1353 1351 1350 1348 1347 1345 1343 1341 1338 1336 1334 1331 1329 1326 1323 1321 1318 1315 1313 1310 1307 1305 1302 1300 1298 1295 1293 1291 1290 1288 1287 1285 1284 1283 1283 1282 1282 1282 1283 1283 1284 1285 1287 1288 1290 1292 1294 1297 1300 1303 1306 1310 1314 1318 1322 1326 1331 1336 1341 1346 1351 1356 1361 1367 1372 1378 1383 1389 1395 1400 1406 1411 1416 1422 1427 1432 1437 1441 1446 1450 1454 1458 1462 1466 1469 1472 1475 1477 1480 1482 1483 1485 1486 1487 1488 1488 1488 1488 1488 1488 1487 1486 1485 1484 1482 1481 1479 1478 1476 1474 1472 1470 1468 1466 1464 1462 1460 1458 1456 1455 1453 1452 1451 1450 1449 1448 1448 1448 1448 1449 1449 1450 1452 1453 1455 1457 1460 1463 1466 1469 1473 1476 1480 1485 1489 1494 1499 1504 1509 1515 1520 1526 1531 1537 1542 1548 1553 1558 1564 1569 1573 1578 1582 1586 1589 1592 1595 1597 1598 1599 1600 1600 1599 1597 1595 1592 1588 1584 1578 1572 1565 1557 1548 1538 1527 1516 1503 1490 1475 1460 1443 1426 1407 1388 1368 1347 1325 1302 1278 1254 1229 1203 1176 1148
-94 -89 -84 -77 -70 -62 -53 -44 -34 -24 -13 -1 10 23 35 49 62 75 89 104 118 132 147 162 176 191 206 221 236 251 265 280 295 309 324 338 352 366 380 393 407 420 433 446 459 472 484 496 508 520 532 543 555 566 577 588 599 609 620 630 641 651 661 671 681 691 700 710 720 729 739 748 758 767 776 786 795 804 813 822 831 840 849 858 866 875 883 892 900 908 916 924 932 939 946 954 961 967 974 980 986 992 998 1003 1008 1013 1017 1021 1025 1029 1032 1035 1037 1039 1041 1043 1044 1045 1045 1045 1045 1045 1044 1043 1041 1040 1038 1035 1033 1030 1027 1024 1020 1017 1013 1009 1005 1000 996 991 987 982 977 973 968 964 959 954 950 946 941 937 933 930 926 923 919 917 914 911 909 908 906 905 904 903 903 903 903 904 905 907 908 911 913 916 919 922 926 930 934 939 944 949 955 960 966 972 978 985 992 998 1005 1012 1020 1027 1034 1041 1049 1056 1064 1071 1078 1086 1093 1100 1107 1114 1121 1128 1135 1141 1147 1154 1160 1165 1171 1176 1182 1187 1191 1196 1200 1205 1209 1212 1216 1219 1223 1226 1228 1231 1233 1236 1238 1240 1242 1243 1245 1247 1248 1249 1250 1252 1253 1254 1255 1256 1257 1258 1259 1259 1260 1261 1262 1264 1265 1266 1267 1268 1270 1271 1273 1274 1276 1277 1279 1281 1283 1285 1287 1290 1292 1294 1296 1299 1301 1304 1306 1309 1311 1314 1317 1319 1322 1324 1327 1329 1331 1334 1336 1338 1340 1342 1344 1345 1347 1348 1349 1351 1352 1352 1353 1353 1354 1354 1354 1353 1353 1352 1352 1351 1350 1348 1347 1345 1344 1342 1340 1338 1336 1333 1331 1328 1326 1323 1321 1318 1315 1313 1310 1307 1305 1302 1300 1297 1295 1293 1291 1289 1287 1286 1284 1283 1282 1281 1281 1280 1280 1280 1281 1281 1282 1283 1285 1286 1288 1290 1293 1295 1298 1302 1305 1309 1312 1316 1321 1325 1330 1335 1340 1345 1350 1355 1361 1366 1372 1377 1383 1389 1394 1400 1405 1411 1416 1422 1427 1432 1437 1442 1446 1451 1455 1459 1463 1467 1470 1473 1476 1479 1481 1483 1485 1486 1488 1489 1490 1490 1490 1491 1490 1490 1489 1489 1488 1486 1485 1484 1482 1480 1478 1476 1474 1472 1470 1468 1466 1464 1462 1461 1459 1457 1456 1454 1453 1452 1451 1451 1450 1450 1450 1450 1451 1452 1453 1455 1456 1458 1461 1463 1466 1469 1473 1477 1480 1485 1489 1494 1498 1503 1508 1513 1519 1524 1529 1535 1540 1546 1551 1556 1561 1566 1570 1574 1578 1582 1585 1588 1591 1593 1594 1595 1595 1595 1594 1592 1590 1587 1583 1579 1573 1567 1560 1552 1543 1533 1522 1511 1498 1484 1470 1454 1438 1421 1402 1383 1363 1342 1320 1298 1274 1250 1225 1199 1172 1145
-96 -92 -86 -80 -73 -65 -56 -47 -38 -27 -17 -6 6 18 31 44 57 70 84 98 112 126 141 155 170 185 199 214 229 243 258 273 287 302 316 330 344 358 372 385 399 412 425 438 451 463 476 488 500 512 523 535 546 558 569 580 590 601 612 622 632 643 653 663 673 683 693 702 712 722 731 741 750 760 769 778 788 797 806 815 824 833 842 851 860 868 877 885 893 901 909 917 925 933 940 947 954 961 967 974 980 986 991 996 1001 1006 1010 1015 1018 1022 1025 1028 1030 1032 1034 1036 1037 1038 1038 1038 1038 1038 1037 1036 1034 1032 1030 1028 1026 1023 1020 1016 1013 1009 1005 1001 997 993 989 984 980 975 970 966 961 957 952 948 943 939 935 931 927 923 920 916 913 911 908 906 904 902 901 900 899 898 898 898 899 900 901 903 904 907 909 912 915 919 923 927 931 936 941 947 952 958 964 970 976 983 990 997 1004 1011 1018 1026 1033 1040 1048 1055 1063 1070 1078 1085 1092 1100 1107 1114 1121 1128 1134 1141 1147 1153 1159 1165 1171 1176 1181 1186 1191 1196 1200 1204 1208 1212 1216 1219 1222 1225 1228 1230 1233 1235 1237 1239 1241 1243 1244 1246 1247 1248 1249 1250 1251 1252 1253 1254 1255 1256 1257 1258 1259 1259 1260 1261 1262 1264 1265 1266 1267 1269 1270 1272 1273 1275 1277 1278 1280 1282 1284 1287 1289 1291 1293 1296 1298 1301 1303 1306 1308 1311 1313 1316 1318 1321 1323 1326 1328 1330 1333 1335 1337 1339 1340 1342 1344 1345 1346 1347 1348 1349 1350 1350 1350 1351 1351 1350 1350 1349 1349 1348 1347 1345 1344 1342 1341 1339 1337 1335 1333 1330 1328 1326 1323 1321 1318 1315 1313 1310 1307 1305 1302 1300 1297 1295 1293 1291 1289 1287 1285 1283 1282 1281 1280 1279 1279 1278 1278 1278 1279 1279 1280 1281 1283 1284 1286 1289 1291 1294 1297 1300 1303 1307 1311 1315 1319 1324 1329 1333 1338 1344 1349 1354 1360 1365 1371 1377 1382 1388 1394 1399 1405 1411 1416 1422 1427 1432 1437 1442 1447 1451 1456 1460 1464 1467 1471 1474 1477 1480 1482 1485 1486 1488 1490 1491 1492 1492 1493 1493 1493 1492 1492 1491 1490 1489 1488 1486 1484 1483 1481 1479 1477 1475 1473 1471 1469 1467 1465 1463 1461 1460 1458 1457 1455 1454 1453 1453 1452 1452 1452 1452 1453 1454 1455 1456 1458 1459 1462 1464 1467 1470 1473 1477 1480 1484 1489 1493 1498 1502 1507 1512 1517 1522 1528 1533 1538 1543 1548 1553 1558 1563 1567 1571 1575 1578 1582 1584 1587 1588 1590 1591 1591 1590 1589 1588 1585 1582 1578 1574 1568 1562 1555 1547 1538 1528 1517 1505 1493 1479 1465 1449 1433 1416 1398 1378 1358 1338 1316 1293 1270 1246 1220 1195 1168 1141
-98 -94 -88 -82 -75 -68 -59 -51 -41 -31 -21 -10 2 14 26 39 52 65 79 92 106 120 135 149 163 178 193 207 222 236 251 265 280 294 308 322 336 350 364 377 391 404 417 430 442 455 467 480 492 503 515 527 538 549 560 571 582 593 604 614 624 635 645 655 665 675 685 695 705 714 724 733 743 752 762 771 781 790 799 808 817 826 835 844 853 861 870 878 887 895 903 911 918 926 933 941 947 954 961 967 973 979 984 990 995 999 1004 1008 1012 1015 1018 1021 1023 1025 1027 1029 1030 1031 1031 1031 1031 1030 1030 1028 1027 1025 1023 1021 1018 1015 1012 1009 1006 1002 998 994 990 986 981 977 972 968 963 959 954 950 945 941 936 932 928 924 920 917 914 910 907 905 902 900 898 897 895 894 894 893 893 894 894 895 897 898 900 903 906 909 912 916 920 924 929 933 939 944 950 956 962 968 975 981 988 995 1002 1010 1017 1024 1032 1039 1047 1054 1062 1070 1077 1084 1092 1099 1106 1113 1120 1127 1134 1140 1147 1153 1159 1165 1170 1176 1181 1186 1191 1195 1200 1204 1208 1211 1215 1218 1221 1224 1227 1230 1232 1234 1236 1238 1240 1241 1243 1244 1246 1247 1248 1249 1250 1251 1252 1252 1253 1254 1255 1256 1257 1257 1258 1259 1260 1261 1262 1263 1265 1266 1267 1269 1270 1272 1274 1276 1277 1279 1281 1283 1286 1288 1290 1293 1295 1297 1300 1302 1305 1307 1310 1312 1315 1317 1320 1322 1325 1327 1329 1331 1333 1335 1337 1338 1340 1341 1343 1344 1345 1346 1346 1347 1347 1347 1347 1347 1347 1346 1345 1344 1343 1342 1341 1339 1338 1336 1334 1332 1330 1327 1325 1323 1320 1318 1315 1312 1310 1307 1305 1302 1300 1297 1295 1292 1290 1288 1286 1284 1283 1281 1280 1279 1278 1277 1276 1276 1276 1276 1277 1277 1278 1279 1281 1283 1285 1287 1289 1292 1295 1298 1302 1306 1309 1314 1318 1323 1327 1332 1337 1343 1348 1353 1359 1365 1370 1376 1382 1388 1393 1399 1405 1411 1416 1422 1427 1432 1437 1442 1447 1452 1456 1461 1465 1468 1472 1475 1478 1481 1484 1486 1488 1490 1491 1493 1493 1494 1495 1495 1495 1494 1494 1493 1492 1491 1490 1489 1487 1485 1484 1482 1480 1478 1476 1474 1472 1470 1468 1466 1464 1462 1461 1459 1458 1457 1456 1455 1454 1454 1454 1454 1454 1455 1456 1457 1459 1461 1463 1465 1467 1470 1473 1477 1480 1484 1488 1492 1497 1501 1506 1511 1516 1521 1526 1531 1536 1541 1546 1551 1555 1560 1564 1568 1571 1575 1578 1580 1583 1584 1586 1586 1586 1586 1585 1583 1580 1577 1573 1569 1563 1557 1549 1541 1532 1523 1512 1500 1488 1474 1460 1444 1428 1411 1393 1374 1354 1333 1311 1289 1265 1241 1216 1191 1164 1137
-100 -96 -90 -85 -78 -70 -62 -54 -44 -35 -24 -13 -2 10 22 34 47 60 73 87 101 115 129 143 157 172 186 201 215 229 244 258 272 287 301 315 329 342 356 369 383 396 409 422 434 447 459 471 483 495 507 518 530 541 552 563 574 585 596 606 617 627 637 647 657 667 677 687 697 707 716 726 736 745 755 764 773 783 792 801 810 819 828 837 846 855 863 872 880 888 896 904 912 919 927 934 941 948 954 960 966 972 978 983 988 992 997 1001 1005 1008 1011 1014 1016 1018 1020 1022 1023 1023 1024 1024 1024 1023 1022 1021 1019 1018 1016 1013 1011 1008 1005 1002 998 995 991 987 983 978 974 970 965 961 956 952 947 943 938 934 930 926 922 918 914 911 907 904 901 899 897 895 893 891 890 889 889 889 889 889 890 891 893 894 897 899 902 905 909 912 917 921 926 931 936 942 947 953 960 966 973 980 987 994 1001 1008 1016 1023 1031 1038 1046 1054 1061 1069 1076 1084 1091 1099 1106 1113 1120 1127 1133 1140 1146 1153 1159 1164 1170 1175 1181 1186 1190 1195 1199 1203 1207 1211 1214 1218 1221 1224 1226 1229 1231 1233 1235 1237 1239 1240 1242 1243 1244 1245 1246 1247 1248 1249 1250 1251 1251 1252 1253 1253 1254 1255 1256 1257 1258 1259 1260 1261 1262 1263 1264 1266 1267 1269 1271 1272 1274 1276 1278 1280 1282 1284 1287 1289 1291 1294 1296 1299 1301 1304 1306 1309 1311 1314 1316 1318 1321 1323 1325 1327 1329 1331 1333 1335 1336 1338 1339 1340 1341 1342 1342 1343 1343 1343 1343 1343 1343 1342 1342 1341 1340 1339 1337 1336 1334 1332 1331 1329 1326 1324 1322 1320 1317 1315 1312 1309 1307 1304 1302 1299 1297 1294 1292 1290 1287 1285 1283 1282 1280 1278 1277 1276 1275 1274 1274 1274 1274 1274 1274 1275 1276 1277 1279 1281 1283 1285 1287 1290 1293 1297 1300 1304 1308 1312 1317 1321 1326 1331 1336 1342 1347 1352 1358 1364 1370 1375 1381 1387 1393 1399 1405 1410 1416 1422 1427 1433 1438 1443 1448 1453 1457 1461 1466 1469 1473 1476 1480 1483 1485 1488 1490 1491 1493 1494 1495 1496 1497 1497 1497 1497 1496 1496 1495 1494 1493 1491 1490 1488 1486 1484 1482 1480 1478 1476 1474 1472 1470 1468 1467 1465 1463 1462 1460 1459 1458 1457 1456 1456 1456 1456 1456 1457 1457 1459 1460 1462 1463 1466 1468 1471 1474 1477 1480 1484 1488 1492 1496 1501 1505 1510 1514 1519 1524 1529 1534 1539 1543 1548 1552 1557 1561 1564 1568 1571 1574 1576 1579 1580 1581 1582 1582 1581 1580 1578 1576 1572 1568 1563 1558 1551 1544 1536 1527 1517 1507 1495 1482 1469 1455 1439 1423 1406 1388 1369 1349 1328 1307 1284 1261 1237 1212 1187 1161 1134
-102 -98 -93 -87 -80 -73 -65 -57 -48 -38 -28 -17 -6 5 17 30 42 55 68 82 95 109 123 137 151 165 180 194 208 223 237 251 265 279 293 307 321 335 348 362 375 388 401 414 426 439 451 463 475 487 499 510 522 533 544 555 566 577 588 598 609 619 629 640 650 660 670 680 690 699 709 719 728 738 747 757 766 776 785 794 803 812 821 830 839 848 856 865 873 881 889 897 905 913 920 927 934 941 947 954 960 965 971 976 981 986 990 994 998 1001 1004 1007 1009 1011 1013 1014 1015 1016 1016 1016 1016 1016 1015 1014 1012 1010 1008 1006 1003 1000 997 994 991 987 983 979 975 971 967 962 958 954 949 945 940 936 931 927 923 919 915 911 908 904 901 898 896 893 891 889 887 886 885 884 884 884 884 885 886 887 888 890 893 895 898 902 905 909 914 918 923 928 934 939 945 951 958 964 971 978 985 992 1000 1007 1015 1022 1030 1037 1045 1053 1061 1068 1076 1083 1091 1098 1105 1113 1120 1126 1133 1140 1146 1152 1158 1164 1170 1175 1180 1185 1190 1194 1199 1203 1207 1210 1214 1217 1220 1223 1225 1228 1230 1232 1234 1236 1237 1239 1240 1242 1243 1244 1245 1245 1246 1247 1248 1248 1249 1250 1250 1251 1252 1252 1253 1254 1255 1256 1257 1258 1259 1260 1261 1263 1264 1266 1267 1269 1271 1273 1274 1276 1279 1281 1283 1285 1288 1290 1292 1295 1297 1300 1302 1305 1307 1310 1312 1314 1317 1319 1321 1323 1325 1327 1329 1331 1332 1334 1335 1336 1337 1338 1339 1339 1339 1340 1340 1339 1339 1339 1338 1337 1336 1335 1334 1332 1331 1329 1327 1325 1323 1321 1319 1316 1314 1311 1309 1306 1304 1301 1299 1296 1294 1291 1289 1287 1285 1283 1281 1279 1277 1276 1275 1274 1273 1272 1272 1271 1271 1272 1272 1273 1274 1275 1277 1279 1281 1283 1286 1288 1292 1295 1299 1302 1306 1311 1315 1320 1325 1330 1335 1340 1346 1352 1357 1363 1369 1375 1381 1387 1393 1399 1405 1410 1416 1422 1427 1433 1438 1443 1448 1453 1458 1462 1466 1470 1474 1478 1481 1484 1487 1489 1491 1493 1495 1496 1497 1498 1499 1499 1499 1499 1499 1498 1497 1496 1495 1494 1492 1491 1489 1487 1485 1483 1481 1479 1477 1475 1473 1471 1469 1467 1466 1464 1463 1461 1460 1459 1458 1458 1458 1458 1458 1458 1459 1460 1461 1463 1464 1466 1469 1471 1474 1477 1480 1484 1487 1491 1495 1500 1504 1508 1513 1518 1522 1527 1532 1536 1541 1545 1549 1554 1557 1561 1564 1568 1570 1573 1574 1576 1577 1577 1577 1577 1575 1573 1571 1567 1563 1558 1553 1546 1539 1531 1522 1512 1501 1490 1477 1464 1450 1434 1418 1401 1383 1364 1344 1324 1302 1280 1257 1233 1208 1183 1157 1130
-103 -99 -94 -89 -83 -76 -68 -60 -51 -41 -31 -21 -10 1 13 25 38 50 63 76 90 104 117 131 145 159 173 188 202 216 230 244 258 272 286 300 314 327 341 354 367 380 393 406 418 431 443 455 467 479 491 502 514 525 536 547 558 569 580 590 601 611 622 632 642 652 662 672 682 692 702 711 721 731 740 750 759 769 778 787 796 805 814 823 832 841 850 858 866 875 883 891 898 906 913 920 927 934 940 947 953 958 964 969 974 978 983 987 990 994 997 999 1002 1004 1006 1007 1008 1009 1009 1009 1009 1008 1007 1006 1004 1003 1001 998 996 993 990 987 983 980 976 972 968 964 959 955 951 946 942 937 933 929 925 920 916 912 909 905 901 898 895 892 890 887 885 883 882 881 880 879 879 879 879 880 881 883 884 887 889 892 895 898 902 906 911 915 920 926 931 937 943 949 956 963 969 976 984 991 998 1006 1013 1021 1029 1037 1044 1052 1060 1068 1075 1083 1090 1098 1105 1112 1119 1126 1133 1139 1146 1152 1158 1164 1169 1175 1180 1185 1189 1194 1198 1202 1206 1210 1213 1216 1219 1222 1224 1227 1229 1231 1233 1235 1236 1237 1239 1240 1241 1242 1243 1244 1244 1245 1246 1246 1247 1247 1248 1249 1249 1250 1250 1251 1252 1253 1254 1255 1256 1257 1258 1259 1261 1262 1264 1265 1267 1269 1271 1273 1275 1277 1279 1281 1283 1286 1288 1291 1293 1295 1298 1300 1303 1305 1308 1310 1312 1315 1317 1319 1321 1323 1325 1326 1328 1329 1331 1332 1333 1334 1334 1335 1335 1335 1336 1335 1335 1335 1334 1333 1332 1331 1330 1328 1327 1325 1323 1321 1319 1317 1315 1313 1310 1308 1305 1303 1300 1298 1295 1293 1291 1288 1286 1284 1282 1280 1278 1276 1275 1273 1272 1271 1270 1269 1269 1269 1269 1269 1270 1271 1272 1273 1275 1277 1279 1281 1284 1287 1290 1293 1297 1301 1305 1309 1314 1319 1324 1329 1334 1339 1345 1351 1356 1362 1368 1374 1380 1386 1392 1398 1404 1410 1416 1422 1428 1433 1439 1444 1449 1454 1459 1463 1467 1471 1475 1479 1482 1485 1488 1491 1493 1495 1497 1498 1499 1500 1501 1501 1501 1501 1501 1500 1500 1499 1498 1496 1495 1493 1492 1490 1488 1486 1484 1482 1480 1478 1476 1474 1472 1470 1468 1466 1465 1463 1462 1461 1460 1460 1459 1459 1459 1460 1460 1461 1462 1464 1465 1467 1469 1472 1474 1477 1480 1483 1487 1491 1495 1499 1503 1507 1511 1516 1520 1525 1529 1534 1538 1542 1547 1551 1554 1558 1561 1564 1566 1569 1570 1572 1573 1573 1573 1572 1571 1569 1566 1562 1558 1553 1548 1541 1534 1526 1517 1507 1496 1485 1472 1459 1444 1429 1413 1396 1378 1359 1340 1319 1298 1276 1253 1229 1204 1179 1153 1127
-105 -101 -96 -91 -85 -78 -70 -62 -54 -44 -35 -24 -14 -3 9 21 33 46 58 72 85 98 112 126 139 153 167 181 195 209 224 238 251 265 279 293 306 320 333 347 360 373 386 398 411 423 435 448 460 471 483 495 506 517 529 540 551 561 572 583 593 604 614 624 635 645 655 665 675 685 694 704 714 724 733 743 752 762 771 780 789 799 808 817 825 834 843 851 860 868 876 884 891 899 906 913 920 927 933 940 946 951 957 962 967 971 976 980 983 987 989 992 994 996 998 999 1000 1001 1001 1001 1001 1000 1000 998 997 995 993 991 988 985 982 979 976 972 968 964 960 956 952 948 943 939 935 930 926 922 918 914 910 906 902 898 895 892 889 886 884 882 880 878 877 875 875 874 874 874 875 876 877 879 880 883 885 888 892 895 899 903 908 913 918 923 929 935 941 947 954 961 968 975 982 990 997 1005 1012 1020 1028 1036 1044 1051 1059 1067 1075 1082 1090 1097 1105 1112 1119 1126 1132 1139 1145 1152 1158 1163 1169 1174 1179 1184 1189 1193 1198 1202 1205 1209 1212 1215 1218 1221 1223 1226 1228 1230 1232 1233 1235 1236 1237 1238 1239 1240 1241 1241 1242 1243 1243 1244 1244 1245 1245 1246 1246 1247 1247 1248 1249 1249 1250 1251 1252 1253 1254 1256 1257 1258 1260 1261 1263 1265 1267 1268 1270 1273 1275 1277 1279 1281 1284 1286 1289 1291 1293 1296 1298 1301 1303 1305 1308 1310 1312 1314 1316 1318 1320 1322 1323 1325 1326 1327 1328 1329 1330 1331 1331 1331 1331 1331 1331 1330 1330 1329 1328 1327 1326 1324 1323 1321 1319 1318 1316 1313 1311 1309 1307 1304 1302 1299 1297 1295 1292 1290 1287 1285 1283 1281 1279 1277 1275 1273 1272 1270 1269 1268 1267 1267 1267 1266 1267 1267 1268 1268 1270 1271 1273 1275 1277 1279 1282 1285 1288 1292 1295 1299 1303 1308 1313 1317 1322 1328 1333 1338 1344 1350 1356 1362 1368 1374 1380 1386 1392 1398 1404 1410 1416 1422 1428 1433 1439 1444 1450 1455 1459 1464 1468 1472 1476 1480 1484 1487 1490 1492 1495 1497 1498 1500 1501 1502 1503 1503 1504 1504 1503 1503 1502 1501 1500 1499 1497 1496 1494 1492 1490 1489 1486 1484 1482 1480 1478 1476 1474 1472 1470 1469 1467 1466 1464 1463 1462 1462 1461 1461 1461 1461 1462 1462 1463 1465 1466 1468 1470 1472 1474 1477 1480 1483 1487 1490 1494 1498 1502 1506 1510 1514 1519 1523 1527 1531 1536 1540 1544 1547 1551 1554 1557 1560 1563 1565 1566 1568 1568 1569 1568 1567 1566 1564 1561 1557 1553 1548 1543 1536 1529 1521 1512 1502 1491 1480 1467 1454 1439 1424 1408 1391 1373 1355 1335 1315 1293 1271 1248 1225 1200 1175 1149 1123
-106 -103 -98 -93 -87 -80 -73 -65 -56 -47 -38 -28 -17 -6 5 17 29 41 54 67 80 93 107 120 134 148 161 175 189 203 217 231 245 259 272 286 299 313 326 339 352 365 378 391 403 416 428 440 452 464 475 487 498 510 521 532 543 554 564 575 586 596 607 617 627 637 647 657 667 677 687 697 707 716 726 736 745 755 764 773 782 792 801 810 818 827 836 844 853 861 869 877 885 892 899 906 913 920 927 933 939 944 950 955 960 964 968 972 976 979 982 985 987 989 991 992 993 994 994 994 993 993 992 991 989 987 985 983 980 978 974 971 968 964 961 957 953 949 945 940 936 932 927 923 919 915 911 907 903 899 895 892 889 886 883 880 878 876 874 872 871 870 870 869 869 870 870 871 873 875 877 879 882 885 888 892 896 900 905 910 915 921 927 933 939 946 952 959 966 973 981 988 996 1004 1011 1019 1027 1035 1043 1051 1059 1066 1074 1082 1089 1097 1104 1111 1118 1125 1132 1139 1145 1151 1157 1163 1168 1174 1179 1184 1188 1193 1197 1201 1205 1208 1211 1214 1217 1220 1222 1224 1226 1228 1230 1232 1233 1234 1235 1236 1237 1238 1239 1239 1240 1240 1241 1241 1242 1242 1242 1243 1243 1244 1244 1245 1245 1246 1247 1248 1248 1249 1250 1252 1253 1254 1256 1257 1259 1260 1262 1264 1266 1268 1270 1272 1275 1277 1279 1282 1284 1286 1289 1291 1294 1296 1298 1301 1303 1305 1307 1310 1312 1313 1315 1317 1319 1320 1321 1323 1324 1325 1325 1326 1326 1327 1327 1327 1326 1326 1325 1325 1324 1323 1322 1320 1319 1317 1315 1314 1312 1310 1307 1305 1303 1301 1298 1296 1293 1291 1289 1286 1284 1282 1280 1278 1276 1274 1272 1270 1269 1268 1266 1265 1265 1264 1264 1264 1264 1265 1265 1266 1267 1269 1270 1272 1275 1277 1280 1283 1286 1290 1294 1298 1302 1306 1311 1316 1321 1326 1332 1337 1343 1349 1355 1361 1367 1373 1379 1386 1392 1398 1404 1410 1416 1422 1428 1434 1439 1445 1450 1455 1460 1465 1469 1474 1478 1481 1485 1488 1491 1494 1496 1498 1500 1502 1503 1504 1505 1506 1506 1506 1506 1505 1505 1504 1503 1501 1500 1499 1497 1495 1493 1491 1489 1487 1485 1483 1481 1479 1477 1475 1473 1471 1469 1468 1467 1465 1464 1464 1463 1463 1463 1463 1463 1464 1464 1465 1467 1468 1470 1472 1475 1477 1480 1483 1486 1489 1493 1497 1501 1504 1509 1513 1517 1521 1525 1529 1533 1537 1541 1544 1548 1551 1554 1557 1559 1561 1562 1563 1564 1564 1564 1563 1561 1559 1556 1553 1548 1543 1538 1531 1524 1516 1507 1497 1486 1474 1462 1449 1434 1419 1403 1386 1369 1350 1331 1310 1289 1267 1244 1221 1196 1171 1146 1119
-108 -104 -100 -95 -89 -82 -75 -67 -59 -50 -41 -31 -21 -10 1 13 25 37 49 62 75 88 101 115 128 142 156 169 183 197 211 225 238 252 266 279 293 306 319 332 345 358 371 383 396 408 420 432 444 456 468 479 491 502 513 524 535 546 557 568 578 589 599 609 620 630 640 650 660 670 680 690 700 709 719 729 738 748 757 766 776 785 794 803 812 820 829 837 846 854 862 870 878 885 892 900 906 913 919 926 932 937 943 948 952 957 961 965 969 972 975 977 980 981 983 984 985 986 986 986 986 985 984 983 981 980 977 975 973 970 967 964 960 957 953 949 945 941 937 933 929 924 920 916 912 908 904 900 896 893 889 886 883 880 877 874 872 870 868 867 866 865 865 865 865 865 866 867 869 871 873 875 878 881 885 889 893 898 902 908 913 919 925 931 937 944 951 958 965 972 980 987 995 1003 1010 1018 1026 1034 1042 1050 1058 1066 1074 1081 1089 1096 1104 1111 1118 1125 1132 1138 1145 1151 1157 1162 1168 1173 1178 1183 1188 1192 1196 1200 1204 1207 1210 1213 1216 1219 1221 1223 1225 1227 1228 1230 1231 1232 1233 1234 1235 1236 1236 1237 1237 1238 1238 1238 1239 1239 1239 1240 1240 1240 1241 1241 1242 1242 1243 1244 1245 1245 1246 1248 1249 1250 1251 1253 1254 1256 1258 1260 1261 1263 1265 1268 1270 1272 1274 1277 1279 1281 1284 1286 1289 1291 1293 1296 1298 1300 1302 1305 1307 1308 1310 1312 1314 1315 1317 1318 1319 1320 1321 1321 1322 1322 1322 1322 1322 1321 1321 1320 1319 1318 1317 1316 1315 1313 1311 1310 1308 1306 1304 1301 1299 1297 1295 1292 1290 1288 1285 1283 1281 1278 1276 1274 1272 1271 1269 1267 1266 1265 1264 1263 1262 1262 1261 1261 1262 1262 1263 1264 1265 1267 1268 1270 1273 1275 1278 1281 1285 1288 1292 1296 1301 1305 1310 1315 1320 1325 1331 1336 1342 1348 1354 1360 1367 1373 1379 1385 1392 1398 1404 1410 1416 1422 1428 1434 1440 1445 1451 1456 1461 1466 1470 1475 1479 1483 1486 1490 1493 1495 1498 1500 1502 1504 1505 1506 1507 1508 1508 1508 1508 1508 1507 1506 1505 1504 1503 1501 1499 1498 1496 1494 1492 1490 1488 1485 1483 1481 1479 1477 1475 1473 1472 1470 1469 1468 1466 1466 1465 1464 1464 1464 1464 1465 1465 1466 1468 1469 1471 1473 1475 1477 1480 1483 1486 1489 1492 1496 1499 1503 1507 1511 1515 1519 1523 1527 1531 1534 1538 1541 1545 1548 1551 1553 1555 1557 1558 1559 1560 1560 1559 1558 1557 1554 1551 1548 1543 1538 1533 1526 1519 1510 1501 1492 1481 1469 1457 1444 1429 1414 1398 1382 1364 1345 1326 1306 1285 1263 1240 1217 1193 1168 1142 1116
-109 -105 -101 -96 -91 -84 -77 -70 -62 -53 -44 -34 -24 -13 -2 9 21 33 45 58 70 83 96 110 123 137 150 164 177 191 205 218 232 246 259 272 286 299 312 325 338 351 364 376 389 401 413 425 437 449 460 472 483 495 506 517 528 539 550 560 571 581 592 602 613 623 633 643 653 663 673 683 693 702 712 722 731 741 750 759 769 778 787 796 805 813 822 831 839 847 855 863 871 878 885 893 899 906 912 919 924 930 935 940 945 950 954 958 961 964 967 970 972 974 975 977 978 978 978 978 978 977 976 975 974 972 970 967 965 962 959 956 952 949 945 941 938 934 930 925 921 917 913 909 905 901 897 893 889 886 883 879 876 873 871 869 866 865 863 862 861 860 860 860 860 861 862 863 865 867 869 872 875 878 882 886 890 895 900 905 911 916 922 929 935 942 949 956 963 971 978 986 994 1002 1009 1017 1025 1033 1041 1049 1057 1065 1073 1081 1088 1096 1103 1110 1118 1124 1131 1138 1144 1150 1156 1162 1167 1173 1178 1182 1187 1191 1195 1199 1203 1206 1209 1212 1215 1217 1219 1221 1223 1225 1227 1228 1229 1230 1231 1232 1233 1233 1234 1234 1234 1235 1235 1235 1235 1236 1236 1236 1236 1237 1237 1237 1238 1238 1239 1240 1240 1241 1242 1243 1244 1245 1247 1248 1250 1251 1253 1255 1257 1259 1261 1263 1265 1267 1269 1272 1274 1276 1279 1281 1283 1286 1288 1291 1293 1295 1297 1299 1301 1303 1305 1307 1309 1310 1311 1313 1314 1315 1316 1316 1317 1317 1317 1317 1317 1317 1316 1316 1315 1314 1313 1312 1310 1309 1307 1305 1303 1302 1299 1297 1295 1293 1291 1288 1286 1284 1282 1279 1277 1275 1273 1271 1269 1267 1266 1264 1263 1262 1261 1260 1259 1259 1259 1259 1259 1260 1260 1262 1263 1264 1266 1268 1271 1273 1276 1279 1283 1287 1291 1295 1299 1304 1309 1314 1319 1324 1330 1336 1341 1347 1354 1360 1366 1372 1379 1385 1391 1398 1404 1410 1417 1423 1429 1435 1440 1446 1452 1457 1462 1467 1471 1476 1480 1484 1488 1491 1494 1497 1500 1502 1504 1506 1507 1508 1509 1510 1510 1511 1510 1510 1510 1509 1508 1507 1505 1504 1502 1500 1498 1497 1494 1492 1490 1488 1486 1484 1482 1480 1478 1476 1474 1472 1471 1470 1468 1467 1467 1466 1466 1466 1466 1466 1467 1467 1468 1470 1471 1473 1475 1477 1480 1482 1485 1488 1491 1495 1498 1502 1506 1509 1513 1517 1521 1524 1528 1532 1535 1539 1542 1545 1547 1549 1552 1553 1554 1555 1556 1556 1555 1554 1552 1550 1547 1543 1539 1533 1528 1521 1514 1505 1496 1487 1476 1464 1452 1439 1425 1410 1394 1377 1359 1341 1321 1301 1280 1259 1236 1213 1189 1164 1139 1113
-110 -107 -103 -98 -92 -86 -79 -72 -64 -56 -47 -37 -27 -17 -6 5 17 29 41 53 66 79 92 105 118 131 145 158 172 185 199 212 226 239 253 266 279 292 305 318 331 344 357 369 382 394 406 418 430 442 453 465 476 487 499 510 521 532 542 553 564 574 585 595 605 616 626 636 646 656 666 676 686 695 705 715 724 734 743 753 762 771 780 789 798 807 815 824 832 840 848 856 864 871 878 885 892 899 905 911 917 923 928 933 938 942 946 950 954 957 960 962 964 966 968 969 970 970 971 971 970 969 968 967 966 964 962 959 957 954 951 948 945 941 938 934 930 926 922 918 914 910 906 902 898 894 890 886 883 879 876 873 870 867 865 863 861 859 858 856 856 855 855 855 855 856 857 859 861 863 865 868 871 875 879 883 887 892 897 903 908 914 920 927 933 940 947 954 962 969 977 985 993 1001 1009 1017 1025 1033 1041 1049 1057 1065 1072 1080 1088 1095 1103 1110 1117 1124 1131 1137 1144 1150 1156 1161 1167 1172 1177 1181 1186 1190 1194 1198 1201 1205 1208 1211 1213 1216 1218 1220 1222 1223 1225 1226 1227 1228 1229 1229 1230 1230 1231 1231 1232 1232 1232 1232 1232 1232 1232 1233 1233 1233 1233 1234 1234 1234 1235 1235 1236 1237 1238 1239 1240 1241 1242 1243 1245 1246 1248 1250 1252 1253 1255 1257 1260 1262 1264 1266 1269 1271 1273 1276 1278 1280 1283 1285 1287 1290 1292 1294 1296 1298 1300 1302 1303 1305 1306 1307 1309 1310 1310 1311 1312 1312 1312 1312 1312 1312 1311 1311 1310 1309 1308 1307 1306 1304 1303 1301 1299 1297 1295 1293 1291 1289 1287 1285 1282 1280 1278 1276 1274 1272 1270 1268 1266 1264 1263 1261 1260 1259 1258 1257 1257 1256 1256 1256 1257 1257 1258 1259 1261 1262 1264 1266 1269 1272 1275 1278 1281 1285 1289 1293 1298 1302 1307 1312 1318 1323 1329 1335 1341 1347 1353 1359 1366 1372 1378 1385 1391 1398 1404 1411 1417 1423 1429 1435 1441 1447 1452 1458 1463 1468 1473 1477 1481 1485 1489 1493 1496 1499 1501 1504 1506 1508 1509 1511 1512 1512 1513 1513 1513 1513 1512 1511 1510 1509 1508 1506 1505 1503 1501 1499 1497 1495 1493 1491 1488 1486 1484 1482 1480 1478 1476 1475 1473 1472 1470 1469 1468 1468 1467 1467 1467 1467 1468 1468 1469 1470 1472 1473 1475 1477 1480 1482 1485 1488 1491 1494 1497 1501 1504 1508 1511 1515 1519 1522 1526 1529 1532 1536 1539 1541 1544 1546 1548 1549 1550 1551 1551 1551 1551 1549 1547 1545 1542 1538 1534 1529 1523 1516 1509 1500 1491 1482 1471 1459 1447 1434 1420 1405 1389 1372 1355 1336 1317 1297 1276 1254 1232 1209 1185 1160 1135 1109
-111 -108 -104 -99 -94 -88 -81 -74 -66 -58 -49 -40 -30 -20 -9 2 13 25 37 49 61 74 87 100 113 126 139 153 166 180 193 206 220 233 246 260 273 286 299 312 325 337 350 362 375 387 399 411 423 435 446 458 469 480 492 503 514 524 535 546 557 567 578 588 598 609 619 629 639 649 659 669 679 688 698 708 717 727 736 746 755 764 773 782 791 800 808 817 825 833 841 849 857 864 871 878 885 892 898 904 910 916 921 926 930 935 939 943 946 949 952 955 957 959 960 961 962 963 963 963 962 962 961 959 958 956 954 952 949 946 943 940 937 933 930 926 922 918 915 911 907 903 899 895 891 887 883 880 876 873 870 867 864 861 859 857 855 853 852 851 850 850 850 850 851 852 853 855 857 859 862 865 868 872 876 880 884 889 895 900 906 912 918 925 931 938 946 953 960 968 976 984 992 1000 1008 1016 1024 1032 1040 1048 1056 1064 1072 1080 1087 1095 1102 1109 1117 1123 1130 1137 1143 1149 1155 1160 1166 1171 1176 1181 1185 1189 1193 1197 1200 1203 1206 1209 1212 1214 1216 1218 1220 1221 1222 1224 1225 1225 1226 1227 1227 1228 1228 1228 1228 1229 1229 1229 1229 1229 1229 1229 1229 1229 1229 1229 1230 1230 1230 1231 1231 1232 1233 1234 1235 1236 1237 1238 1240 1241 1243 1244 1246 1248 1250 1252 1254 1256 1258 1261 1263 1265 1268 1270 1272 1275 1277 1279 1282 1284 1286 1288 1290 1292 1294 1296 1298 1299 1301 1302 1303 1304 1305 1306 1306 1307 1307 1307 1307 1307 1307 1306 1305 1304 1304 1302 1301 1300 1298 1297 1295 1293 1291 1289 1287 1285 1283 1281 1279 1276 1274 1272 1270 1268 1266 1264 1263 1261 1259 1258 1257 1256 1255 1254 1254 1254 1254 1254 1254 1255 1256 1257 1258 1260 1262 1264 1267 1270 1273 1276 1280 1284 1288 1292 1296 1301 1306 1311 1317 1322 1328 1334 1340 1346 1352 1359 1365 1372 1378 1385 1391 1398 1404 1411 1417 1423 1430 1436 1442 1447 1453 1459 1464 1469 1474 1478 1483 1487 1491 1494 1497 1500 1503 1506 1508 1510 1511 1513 1514 1515 1515 1515 1515 1515 1515 1514 1513 1512 1510 1509 1507 1506 1504 1502 1500 1498 1495 1493 1491 1489 1487 1485 1482 1480 1479 1477 1475 1474 1472 1471 1470 1469 1469 1468 1468 1468 1469 1469 1470 1471 1472 1474 1475 1477 1479 1482 1484 1487 1490 1493 1496 1499 1503 1506 1509 1513 1516 1520 1523 1526 1530 1533 1535 1538 1540 1542 1544 1546 1547 1547 1547 1547 1546 1545 1543 1540 1537 1533 1529 1524 1518 1511 1504 1496 1486 1477 1466 1454 1442 1429 1415 1400 1384 1368 1350 1332 1313 1293 1272 1250 1228 1205 1181 1157 1132 1106
-112 -109 -105 -101 -96 -90 -83 -76 -69 -60 -52 -43 -33 -23 -12 -2 10 21 33 45 57 70 82 95 108 121 134 148 161 174 187 201 214 227 240 254 267 280 293 305 318 331 343 356 368 380 392 404 416 428 439 451 462 473 485 496 507 518 528 539 550 560 571 581 591 602 612 622 632 642 652 662 672 682 691 701 711 720 730 739 748 757 766 775 784 793 801 810 818 826 834 842 850 857 864 871 878 885 891 897 903 908 913 918 923 927 931 935 939 942 944 947 949 951 952 953 954 955 955 955 954 954 953 951 950 948 946 944 941 938 935 932 929 926 922 918 915 911 907 903 899 895 891 888 884 880 876 873 869 866 863 860 858 855 853 851 849 848 847 846 845 845 845 846 846 847 849 851 853 855 858 861 865 868 872 877 882 887 892 898 904 910 916 923 930 937 944 951 959 967 974 982 990 999 1007 1015 1023 1031 1039 1047 1055 1063 1071 1079 1087 1094 1102 1109 1116 1123 1129 1136 1142 1148 1154 1160 1165 1170 1175 1180 1184 1188 1192 1195 1199 1202 1205 1207 1210 1212 1214 1216 1218 1219 1220 1221 1222 1223 1223 1224 1224 1225 1225 1225 1225 1225 1225 1225 1225 1225 1225 1225 1225 1225 1225 1225 1225 1225 1226 1226 1227 1227 1228 1229 1230 1231 1232 1233 1234 1236 1237 1239 1241 1243 1244 1246 1248 1251 1253 1255 1257 1260 1262 1264 1267 1269 1271 1274 1276 1278 1280 1283 1285 1287 1289 1290 1292 1294 1295 1296 1298 1299 1300 1300 1301 1302 1302 1302 1302 1302 1302 1301 1300 1300 1299 1298 1296 1295 1294 1292 1290 1289 1287 1285 1283 1281 1279 1277 1275 1273 1271 1269 1267 1265 1263 1261 1259 1258 1256 1255 1254 1253 1252 1252 1251 1251 1251 1251 1252 1253 1254 1255 1256 1258 1260 1263 1265 1268 1271 1274 1278 1282 1286 1291 1295 1300 1305 1310 1316 1322 1327 1333 1339 1346 1352 1358 1365 1371 1378 1385 1391 1398 1405 1411 1418 1424 1430 1436 1442 1448 1454 1459 1465 1470 1475 1480 1484 1488 1492 1496 1499 1502 1505 1508 1510 1512 1513 1515 1516 1517 1517 1518 1518 1517 1517 1516 1515 1514 1513 1512 1510 1508 1506 1504 1502 1500 1498 1496 1494 1491 1489 1487 1485 1483 1481 1479 1477 1476 1474 1473 1472 1471 1470 1470 1469 1469 1470 1470 1471 1472 1473 1474 1476 1477 1479 1481 1484 1486 1489 1492 1495 1498 1501 1504 1508 1511 1514 1518 1521 1524 1527 1530 1532 1535 1537 1539 1541 1542 1543 1543 1543 1543 1542 1540 1538 1536 1533 1529 1524 1519 1513 1506 1499 1491 1482 1472 1461 1450 1437 1424 1410 1395 1379 1363 1346 1327 1308 1288 1268 1246 1224 1201 1177 1153 1128 1102
-113 -110 -106 -102 -97 -91 -85 -78 -71 -63 -54 -45 -36 -26 -16 -5 6 18 29 41 53 65 78 91 103 116 129 142 156 169 182 195 208 221 235 248 261 274 286 299 312 324 337 349 361 374 386 397 409 421 433 444 455 467 478 489 500 511 521 532 543 553 564 574 585 595 605 615 625 635 645 655 665 675 685 694 704 713 723 732 741 751 760 769 777 786 795 803 811 819 827 835 843 850 857 864 871 877 884 890 895 901 906 911 916 920 924 928 931 934 937 939 941 943 944 945 946 947 947 947 946 946 945 943 942 940 938 936 933 930 928 924 921 918 914 911 907 903 900 896 892 888 884 880 877 873 870 866 863 860 857 854 852 849 847 845 844 842 841 841 840 840 840 841 842 843 845 847 849 851 854 858 861 865 869 874 879 884 890 895 901 908 914 921 928 935 942 950 958 965 973 981 989 997 1006 1014 1022 1030 1038 1047 1055 1063 1071 1078 1086 1094 1101 1108 1115 1122 1129 1135 1141 1147 1153 1159 1164 1169 1174 1178 1183 1187 1190 1194 1197 1200 1203 1206 1208 1210 1212 1214 1215 1217 1218 1219 1219 1220 1221 1221 1221 1221 1222 1222 1222 1221 1221 1221 1221 1221 1221 1221 1220 1220 1220 1220 1221 1221 1221 1221 1222 1222 1223 1224 1224 1225 1226 1228 1229 1230 1232 1233 1235 1237 1239 1241 1243 1245 1247 1249 1251 1254 1256 1258 1261 1263 1265 1268 1270 1272 1275 1277 1279 1281 1283 1285 1286 1288 1289 1291 1292 1293 1294 1295 1296 1296 1296 1297 1297 1297 1296 1296 1295 1295 1294 1293 1292 1290 1289 1288 1286 1284 1283 1281 1279 1277 1275 1273 1271 1269 1267 1265 1263 1261 1259 1258 1256 1255 1253 1252 1251 1250 1249 1249 1249 1248 1249 1249 1249 1250 1251 1253 1254 1256 1258 1261 1263 1266 1270 1273 1277 1281 1285 1289 1294 1299 1304 1309 1315 1321 1327 1333 1339 1345 1352 1358 1365 1371 1378 1385 1391 1398 1405 1411 1418 1424 1431 1437 1443 1449 1455 1461 1466 1471 1476 1481 1485 1490 1494 1497 1501 1504 1507 1510 1512 1514 1516 1517 1518 1519 1520 1520 1520 1520 1519 1519 1518 1517 1516 1514 1513 1511 1509 1507 1505 1503 1501 1498 1496 1494 1491 1489 1487 1485 1483 1481 1479 1478 1476 1475 1474 1473 1472 1471 1471 1471 1471 1471 1471 1472 1473 1474 1476 1477 1479 1481 1483 1486 1488 1491 1494 1497 1500 1503 1506 1509 1512 1515 1518 1521 1524 1527 1529 1532 1534 1535 1537 1538 1539 1539 1539 1539 1538 1536 1534 1531 1528 1524 1520 1514 1508 1502 1494 1486 1477 1467 1456 1445 1432 1419 1405 1391 1375 1358 1341 1323 1304 1284 1264 1242 1220 1197 1174 1150 1125 1099
-113 -111 -107 -103 -98 -93 -87 -80 -73 -65 -56 -48 -38 -29 -18 -8 3 14 26 37 49 61 74 86 99 112 125 138 151 164 177 190 203 216 229 242 255 268 280 293 306 318 331 343 355 367 379 391 403 414 426 437 449 460 471 482 493 504 515 525 536 547 557 568 578 588 598 609 619 629 639 649 658 668 678 688 697 707 716 725 735 744 753 762 771 779 788 796 804 813 820 828 836 843 850 857 864 870 876 882 888 894 899 903 908 912 916 920 923 926 929 931 933 935 936 938 938 939 939 939 938 938 937 935 934 932 930 928 925 922 920 917 913 910 907 903 899 896 892 888 884 881 877 873 870 866 863 859 856 853 850 848 845 843 841 840 838 837 836 836 835 835 836 836 837 839 841 843 845 848 851 854 858 862 866 871 876 882 887 893 899 906 912 919 926 933 941 948 956 964 972 980 988 996 1005 1013 1021 1029 1038 1046 1054 1062 1070 1078 1085 1093 1100 1107 1114 1121 1128 1134 1140 1146 1152 1158 1163 1168 1173 1177 1181 1185 1189 1192 1196 1199 1201 1204 1206 1208 1210 1211 1213 1214 1215 1216 1217 1217 1218 1218 1218 1218 1218 1218 1218 1218 1217 1217 1217 1217 1216 1216 1216 1216 1216 1216 1216 1216 1216 1216 1217 1217 1218 1218 1219 1220 1221 1222 1223 1225 1226 1228 1229 1231 1233 1235 1237 1239 1241 1243 1245 1248 1250 1252 1255 1257 1259 1262 1264 1266 1268 1271 1273 1275 1277 1279 1280 1282 1284 1285 1286 1287 1288 1289 1290 1291 1291 1291 1291 1291 1291 1291 1290 1290 1289 1288 1287 1286 1284 1283 1281 1280 1278 1276 1275 1273 1271 1269 1267 1265 1263 1261 1259 1258 1256 1254 1253 1251 1250 1249 1248 1247 1247 1246 1246 1246 1246 1247 1247 1248 1249 1251 1252 1254 1256 1259 1262 1265 1268 1272 1275 1279 1284 1288 1293 1298 1303 1309 1314 1320 1326 1332 1338 1345 1351 1358 1365 1371 1378 1385 1392 1398 1405 1412 1418 1425 1431 1438 1444 1450 1456 1462 1467 1472 1477 1482 1487 1491 1495 1499 1503 1506 1509 1511 1514 1516 1518 1519 1520 1521 1522 1522 1522 1522 1522 1521 1521 1519 1518 1517 1515 1513 1512 1510 1507 1505 1503 1501 1499 1496 1494 1492 1489 1487 1485 1483 1481 1480 1478 1476 1475 1474 1473 1472 1472 1472 1472 1472 1472 1473 1473 1475 1476 1477 1479 1481 1483 1485 1487 1490 1493 1495 1498 1501 1504 1507 1510 1513 1516 1519 1521 1524 1526 1528 1530 1532 1533 1534 1535 1535 1535 1535 1533 1532 1530 1527 1524 1520 1515 1510 1504 1497 1489 1481 1472 1462 1452 1440 1428 1415 1401 1386 1370 1354 1337 1319 1300 1280 1260 1238 1216 1194 1170 1146 1121 1096
-114 -111 -108 -104 -100 -94 -88 -82 -75 -67 -59 -50 -41 -31 -21 -11 0 11 22 34 45 58 70 82 95 107 120 133 146 159 172 185 198 211 223 236 249 262 275 287 300 312 324 337 349 361 373 385 396 408 420 431 442 453 465 476 487 497 508 519 530 540 551 561 571 582 592 602 612 622 632 642 652 662 671 681 691 700 709 719 728 737 746 755 764 772 781 789 798 806 814 821 829 836 843 850 857 863 869 875 881 886 891 896 901 905 909 912 916 918 921 923 925 927 929 930 930 931 931 931 930 930 929 927 926 924 922 920 917 914 912 909 905 902 899 895 892 888 884 881 877 873 870 866 863 859 856 853 850 847 844 842 839 837 835 834 833 832 831 830 830 830 831 832 833 835 836 839 841 844 847 851 855 859 864 868 874 879 885 891 897 903 910 917 924 932 939 947 955 963 971 979 987 995 1004 1012 1020 1029 1037 1045 1053 1061 1069 1077 1085 1092 1099 1107 1114 1120 1127 1133 1139 1145 1151 1157 1162 1167 1171 1176 1180 1184 1187 1191 1194 1197 1199 1202 1204 1206 1207 1209 1210 1211 1212 1213 1214 1214 1214 1215 1215 1215 1214 1214 1214 1214 1213 1213 1213 1212 1212 1212 1211 1211 1211 1211 1211 1211 1211 1211 1211 1212 1212 1213 1213 1214 1215 1216 1217 1219 1220 1222 1223 1225 1227 1228 1230 1232 1235 1237 1239 1241 1244 1246 1248 1251 1253 1255 1258 1260 1262 1264 1267 1269 1271 1273 1274 1276 1278 1279 1280 1282 1283 1284 1284 1285 1286 1286 1286 1286 1286 1286 1285 1285 1284 1283 1282 1281 1280 1278 1277 1275 1274 1272 1270 1269 1267 1265 1263 1261 1259 1258 1256 1254 1253 1251 1250 1248 1247 1246 1245 1244 1244 1244 1243 1243 1244 1244 1245 1246 1247 1249 1250 1252 1255 1257 1260 1263 1267 1270 1274 1278 1283 1287 1292 1297 1302 1308 1314 1320 1326 1332 1338 1345 1351 1358 1365 1371 1378 1385 1392 1399 1406 1412 1419 1426 1432 1439 1445 1451 1457 1463 1468 1474 1479 1484 1488 1493 1497 1501 1504 1508 1511 1513 1516 1518 1520 1521 1523 1524 1524 1525 1525 1525 1524 1524 1523 1522 1521 1519 1518 1516 1514 1512 1510 1508 1506 1503 1501 1499 1496 1494 1492 1489 1487 1485 1483 1481 1480 1478 1477 1476 1475 1474 1473 1473 1473 1473 1473 1473 1474 1475 1476 1477 1479 1480 1482 1484 1487 1489 1491 1494 1497 1500 1502 1505 1508 1511 1513 1516 1519 1521 1523 1525 1527 1529 1530 1531 1531 1532 1531 1531 1529 1528 1525 1523 1519 1515 1510 1505 1499 1492 1485 1476 1467 1457 1447 1435 1423 1410 1396 1381 1366 1350 1332 1314 1296 1276 1256 1234 1213 1190 1167 1143 1118 1093
